7.984473481927385308e+01 9.268742677712243960e+01 8.171945780305051699e+01
2.515659376117141832e+01 6.479966503139839062e+01 9.335022080275567191e+01
8.087406362740904342e+01 8.776352620525774739e+01 8.718112521616507138e+01
4.650827610566673798e+01 8.757679330931152606e+01 9.081048962048483020e+01
9.360910484490419492e+01 1.719054288953258958e+00 9.535218375339495367e+01
4.819547876474494785e+01 7.966753451350861326e+00 9.141816449601898853e+01
6.225277890718935225e+01 4.383650369744175634e+01 8.140974418431812865e+01
2.692127541279576430e+00 1.130251038682263953e+01 8.369299178203736744e+01
6.793789983752816397e+01 7.875994374343054005e+01 9.391688245101776999e+01
4.320583316556676579e+01 5.366323152974739230e+01 8.310216687388580681e+01
1.813500027997312358e+01 9.223973337562026131e+01 8.802511776224255868e+01
6.240408567689937058e+01 3.639718802944147402e+00 8.772601899903385458e+01
4.773938555329404920e+00 8.423189324492486030e-01 8.289995351769915999e+01
1.354811245773439587e+01 1.466018028961624253e+00 9.876811510924646598e+01
7.897518766676229518e+01 8.895805254830108311e+01 9.909510554166503482e+01
1.711171115359840655e+01 1.335611449725838717e+01 8.185837501887047551e+01
7.522465404771165254e+01 1.675379245518082705e-01 9.267388348091245120e+01
4.371508727678453710e+01 1.998451113048400529e+01 9.873476171057927786e+01
8.885807114267348084e+01 5.566419043197967653e+01 9.392948718369773076e+01
3.114861756966691431e+00 7.239477673530728907e+01 8.028719017019196258e+01
4.421202554313850897e+01 4.912286239409694133e+01 8.851667399228061583e+01
1.980538259055445494e+01 4.535549042946188791e+01 8.824149173280316916e+01
4.690090744442968429e+01 3.167764605427159097e+01 8.613740498262212952e+01
6.702666953464181177e+01 8.703861603177465156e+01 9.012031450690879808e+01
8.411246457023180412e+00 6.030646825556169688e+01 9.064808234017806399e+01
4.677090450580087833e+01 7.741239888540583536e+01 8.891121703091681638e+01
1.150321408473382689e+01 7.065009192873593236e+01 8.874240057128994863e+01
1.584391340070217069e+01 8.441108553751236343e+01 8.804470152314932818e+01
2.268408430833956935e+00 6.575482417899563359e+01 8.349315481890045021e+01
6.949057405329159565e+01 1.263536351671633540e+01 9.042099579609110549e+01
1.007315205083669696e+01 9.345972350935657857e+01 9.510046104538770351e+01
7.463013539597405099e+01 2.169929711613967172e+01 9.314595306313482581e+01
1.170668339878925224e+01 3.456718862613603704e+01 9.413869296103622730e+01
5.449876536712066866e+01 2.152589544917124087e+01 9.929258329054087540e+01
3.677900442473358567e+00 7.542969662107562101e+01 9.442240755135226493e+01
2.450515793606313864e+01 4.989615133914102785e+01 9.210059779544103264e+01
4.064218284506318213e+01 9.777593668802077786e+01 8.356140700145068934e+01
8.525665424339187837e+01 3.054813178574726606e+01 8.747987054384628891e+01
9.694426138007486315e+01 8.441482908071411373e+01 8.113360080900531557e+01
1.122038661854424291e+01 6.233406492075119587e+01 8.718810305129581195e+01
1.092357772206501387e+01 4.324972949682511825e+01 8.655667719111632152e+01
9.028707519659154457e+01 7.132722636997650056e+01 9.601409480654034212e+01
2.633194186474476695e+01 7.745720230687960850e+01 8.102678786634629660e+01
3.980931490506791448e+01 2.147934506653534825e+01 8.010251023592947206e+01
9.566215009428718474e+01 3.256927761831329704e+00 8.262724297714763111e+01
2.422517676232561712e+01 7.019907084011606457e+01 8.449268982609838474e+01
4.682016466195722870e+01 4.867925478906507664e+01 9.148094084705392959e+01
7.954265509648756449e+01 8.480306751698812207e+01 9.109934723343255314e+01
3.435782737190537972e+01 6.857122798567868927e+01 9.260943755128585053e+01
5.584789907241719220e+01 4.728351628392671557e+01 8.898335257970960299e+01
9.202374730442726047e+01 6.155443637223555697e+01 8.839759492176169431e+01
2.759424271726529376e+00 3.315031443569110792e+01 8.050217746722559298e+01
4.083646497541391085e+01 6.774620233322927731e+01 9.196989397906116892e+01
7.619566321234778172e+01 7.308603770172696557e+01 9.024821151586898793e+01
1.545827336019971554e+01 5.211415608943289612e+01 8.515099496143338342e+01
3.751927801716360733e+01 3.271189345215405098e+01 8.103832180357181869e+01
3.730965416417727454e+01 1.247309347369558452e+01 8.036596352934049037e+01
7.753604770437985394e+01 2.885346732438307527e+01 8.392935579812167646e+01
2.770804713409504672e+01 1.800114668194805390e+01 8.583829121763497483e+01
9.841644950028455696e+01 3.207835818008667417e+01 8.517113584924692304e+01
2.026711805533554234e+00 2.961315821947109228e+01 8.103965862538314013e+01
1.601737618180634115e+01 2.140262027046199123e+01 8.327516950823830655e+01
2.424473903059923785e+01 2.306797340836940080e+01 9.995713023103499495e+01
4.510844693420897755e+01 4.610417046180459266e+01 9.947215184496069185e+01
3.009369173927085583e+01 8.308664092371765264e+01 9.580850134987443312e+01
5.287545998456084817e+01 5.427388315742762614e+01 9.789903529740611532e+01
7.040437758242346433e+01 5.639062379888542864e+01 8.403107957221607194e+01
2.442286170946150747e+01 3.612227478703317018e+01 9.550264570733463643e+01
6.210645522994246903e+01 7.354315766880425542e+00 8.513104072585723259e+01
1.250754320663027830e+00 5.325649194873162173e+01 9.577485287423968430e+01
1.661431294520278001e+01 6.791766658853315164e+01 8.498676882383387010e+01
2.246708396820218212e+01 4.289383418202753262e+01 8.307631031892918827e+01
4.003143269950777494e+01 8.809353031590536887e+01 8.745891670836665810e+01
5.162178749226568186e+01 9.723346169579976106e+01 8.001160830259895818e+01
7.181248468489610559e+01 9.449027700148546671e+01 9.013588038992172358e+01
8.301875613178324897e+01 3.326017350524106320e+01 9.454393936638788887e+01
5.527367436353938501e+01 4.446539177581076530e+00 8.706529459738780474e+01
8.982187878268541681e+01 2.266480832549322422e+00 9.118243385424331393e+01
3.228055876436420135e+01 4.325030831507230289e+01 8.712308522172297387e+01
3.615190851589800136e+00 1.783850549261897100e+01 8.539141502184958199e+01
6.442102845481699092e+01 1.673397588246637824e+01 8.502139069508731950e+01
1.794006207231414507e+01 8.911010393660161810e+01 9.440523407575631154e+01
7.063884230582992529e+01 6.713214742764951382e+01 8.235759896663759605e+01
5.551829252295439687e+01 9.208147798586261956e+01 8.605326908952092424e+01
4.383998085015764445e+01 1.742524042199294954e+01 8.119306253024730324e+01
8.132855045745034772e+01 8.456715653185977999e+01 9.448815101228703384e+01
1.127457956648699700e+01 1.372960744889644147e+01 8.814442048977012689e+01
8.958418891470543599e+01 9.891967213527452429e+01 8.755534859637890577e+01
8.815067751413897668e+01 5.464116253856617078e+01 8.507475438094907361e+01
9.254866750820116295e+01 2.641502955534724606e+01 9.231890027523252229e+01
5.373095935467119233e+01 5.661823856745093053e+01 9.545442311185252038e+01
2.626403352545480985e+01 2.639678012079125224e+01 8.268191506004592384e+01
7.814568459871473749e+00 4.120744803958780977e+01 9.401859659838891048e+01
3.387440814131500133e+01 7.983082994767407570e+01 9.890111810410202509e+01
9.796324178324923082e+00 8.783926035056948933e+01 9.737362038423064803e+01
8.785143343619316170e+01 9.994895594707800512e+01 8.948369019721559425e+01
9.183012715798982128e+01 6.627134773887524943e+01 8.977905217542820537e+01
1.639113368680278349e-01 1.889799284418809577e+01 8.984076023544351131e+01
9.516729594438740492e+01 6.427452314177766368e+01 8.262783486283188950e+01
8.979069846540208744e+01 4.858279304248720365e+01 8.197253445369305780e+01
6.279384693561674169e+00 5.306219677147087310e+01 9.557419556801592364e+01
2.699647083953905380e+01 2.197252602236713415e+01 9.574179258748833377e+01
4.072414525396597895e+01 8.618195157553999763e+01 8.266587920482220397e+01
1.877256454777445072e+01 6.892879670577006834e+01 9.333957390550926903e+01
4.467214099689198470e-01 8.897319144738322905e+01 9.013905728005428841e+01
3.828027429652391955e+00 6.704920438101427749e+01 8.442961960583690484e+01
9.835130356515027472e+01 1.317634200946248235e+01 9.463841513463843569e+01
3.109751328794103742e+01 6.356093039974877001e+01 8.410965282019672884e+01
5.960701598518167543e+01 2.977009192653642344e+01 9.871378101064316013e+01
3.982323050960798838e+01 5.804839146391145022e+01 9.718903627676981216e+01
3.080918143429566314e+01 5.622806401588689340e+01 8.083237749680611728e+01
2.518880318864269441e+01 8.966836808488073984e+01 9.399920728850781870e+01
7.041933357515452485e+01 7.016241553190913294e+01 8.801267006793761993e+01
6.023601735985310057e+01 9.621670045795383430e+01 9.903293733660785847e+01
7.088219200164206768e+01 9.288296640072023536e+01 9.500404971727284931e+01
2.283487491008762138e+00 8.790628339124508273e+01 8.085113552542887305e+01
5.082969784675690761e+01 5.448291259222259697e+01 9.385933008468502692e+01
8.703643832744766939e+01 4.783130461110400944e+01 8.107593723736759728e+01
8.035329719890304645e+00 7.134711535184889541e+00 8.905234605170942075e+01
5.429331963182616505e+01 8.651984465356996168e+01 8.148364575179599001e+01
2.888996574974017761e+01 6.410555656302582861e+01 9.143056816490251038e+01
7.576796484456262704e+01 6.543482547275323213e+01 9.793965185449509647e+01
4.860309846732013384e+00 9.404102959123602545e+01 9.519624367205751980e+01
4.203097484726119148e+01 1.288305468308620405e+01 8.963912424058312922e+01
1.003234982820272414e+01 1.074091914834624006e+01 8.637095736614860186e+01
7.708029962225685949e+01 6.665036197875893720e+01 9.735875623671701362e+01
9.505092786941683869e+01 8.346885949314943787e+01 9.825532792572751362e+01
9.996521091805045955e+01 3.615506050060357524e+00 9.953115877005990342e+01
1.632978408095621248e+01 9.883460108747208039e+01 8.746881506558828789e+01
4.644609976939781149e+01 7.677747783663465952e+01 8.126829650346651590e+01
7.104075826370342384e+01 3.004112659070457170e+01 8.256037387598327371e+01
1.950853959867423626e+01 9.445535090978576420e+01 9.014903234224507855e+01
9.737644281800770329e+01 6.504233221153505440e+01 8.322732714834893386e+01
3.979020977358267430e+01 1.199517884012767333e+01 8.772512768941609806e+01
2.047447412560944358e+01 2.897757439055651574e+01 9.545617923903687085e+01
8.662165051293845863e+01 1.083964498444407454e+01 9.949425183130905737e+01
6.876453439574684978e+01 8.506872535558728998e+01 8.071776121571834040e+01
5.550813897269790687e+01 7.526972224276508427e+01 9.759375051901822928e+01
5.497501726585360871e+01 7.402104559034725639e+01 9.128639503636237862e+01
3.916497978428908056e+01 8.092568408568308769e+01 8.590307129427844757e+01
3.782637016160577303e+01 4.981466824606363986e+01 8.860172053707316309e+01
8.247275933025971995e+01 7.183103874236184083e+01 8.413401889238024012e+01
3.334665820649878043e+01 4.926285781845868428e+01 9.935887041483843518e+01
1.198132607673350059e+01 6.854680687751726964e+01 9.676153685788942482e+01
5.275530594576859045e+01 8.317280736683579789e+01 9.539949396098874956e+01
2.157062231750913739e+01 7.560135297913721786e+01 9.007318895965543959e+01
5.881805439397271584e+01 3.727516940600347084e+01 8.042985639291194389e+01
7.826036400932922632e+00 5.728165071642530393e+01 9.246688839555901041e+01
6.742034020448512877e+01 5.874347840518360186e+01 8.990829013129815905e+01
2.090648516437076943e+00 1.103282439526567238e+01 8.277266421056090451e+01
8.953184477727434398e+01 8.621056593042486327e+01 9.718608921358780606e+01
5.936243252043579588e+01 6.879799240609540334e+01 9.289076401915365011e+01
3.616589683562995106e+01 9.145506521787138965e+00 9.278679664963182461e+01
5.589574217292712888e+01 2.099831861332413041e+01 9.741463003284364675e+01
1.884006375494852037e+01 7.908372438594857279e+00 9.734180392776374902e+01
2.629096863534616801e+01 4.178926171623508878e+00 9.219213351703457704e+01
2.508707466532471386e+01 9.772944897731086655e+01 8.013388761289957074e+01
1.951026725068529899e+01 5.569725557930639326e+01 8.011715865099098721e+01
1.846290418454934468e+01 2.565049376789415447e+01 8.152322620215825566e+01
4.590117956431159030e+01 7.862346650991796082e+01 8.547489531565510390e+01
9.792920803245952044e+00 7.518733661544685276e+01 8.365489635360526677e+01
2.901351294885644450e+01 2.071352539443884666e+01 8.532552390527334296e+01
3.041166798187366993e+01 6.594622678234860302e+01 9.150736979425553841e+01
6.345279500533991524e+01 8.630065791161855770e+01 8.056526182115526069e+01
5.812909685802236659e+00 5.492625664331605151e+01 8.026439251505992445e+01
3.991173970573255048e+01 8.904736744193897380e-01 9.987818870683969408e+01
5.444606375879234861e+01 8.623812323633750054e+00 8.786691699703420966e+01
8.341381792526833294e+01 9.984002518314196095e+01 9.252716458722500192e+01
5.235848168998312957e+01 3.913630028147040463e+01 8.595162838469774158e+01
7.722288406650957882e+01 9.214721671460505092e+01 9.355895458571878009e+01
9.108782709521776155e+01 6.677257798285829438e+01 8.768751384374662905e+01
4.374369537060290725e+01 1.131547707274051007e+01 8.768734924176753509e+01
6.456601612832491810e+01 6.106200869481658344e+01 9.816506686482868815e+01
9.163996076039568095e+01 6.044078923733511033e+01 8.930522311794534573e+01
9.421308656618369071e+01 8.720067351098393260e+01 8.740148399458065853e+01
5.215741267262150416e+01 5.180286392813715501e+00 8.101431695679805500e+01
3.536601305043586052e+01 2.238403252486175177e+01 8.917097558846836591e+01
5.114704574077263288e+01 6.933256782515750949e+00 9.379376851124528969e+01
9.471665275636105719e+01 7.172610456349848285e+00 9.385363341217377808e+01
2.232180862019312784e+01 9.358662366097649965e+01 9.225542588114906550e+01
2.508290935528113508e+01 7.222750313723713589e+01 8.183243789249752353e+01
5.285094657213461744e+01 9.333527051790267137e+01 8.803599001278050196e+01
1.160769278848937702e+01 4.818137300433421899e+01 9.172015185191901310e+01
8.145793911831310652e+01 2.402403256819722799e+01 8.690878431590974174e+01
4.943335687689744162e+01 5.447725184375591567e+01 8.633471985224187506e+01
4.495894687723711591e+00 2.753569394433005257e+01 8.917711408151419050e+01
4.701338673829076242e+01 4.493902181036265375e+01 8.191365889503610731e+01
2.863417177275684455e+00 2.207656591712245842e+01 8.546947953502484552e+01
4.886350883201636464e+01 8.748991742196135135e+01 9.387699987038196525e+01
1.220070459095717830e+01 2.109930254152875406e+01 9.507525610545212658e+01
3.015070758914719562e+01 7.169691012248981110e+01 9.116912357460716976e+01
6.716357562730279085e+01 9.563246602070947233e+01 8.547985105689562602e+01
8.756402864204093817e+01 9.775378069915323920e+01 8.484546928650597408e+01
3.971574107252461516e+01 7.941269972534662713e+01 9.776306632631039406e+01
7.651262653657660451e+01 2.391714619233992067e+01 9.722376395560642948e+01
4.670334183436342101e+00 4.555492807623740248e+01 8.285231318471846862e+01
3.126958865281037703e+01 2.474731151889949388e+01 9.010075311913831797e+01
5.541859223918132926e+01 2.434042319328056792e+01 8.155540322216330651e+01
2.138281390816865013e+01 5.147442349876978085e+01 8.710279570709714392e+01
9.388917487574272513e+01 8.638550981585218835e+01 9.416289761700024030e+01
8.453004330326578497e+01 7.965856602048127399e+01 8.091020683467819197e+01
7.271163786246312100e+01 8.605572796660576174e+00 8.125038181643071766e+01
8.213202603757333975e+01 8.482811549868704049e+01 9.314087030572973447e+01
6.478980083003429513e+01 7.739307736043232744e+00 8.063450088461139842e+01
4.507855192533494204e-01 2.755477712590965922e+01 8.121558220106535941e+01
2.708513853248943803e+01 5.465260077294702512e+01 9.416829837941095604e+01
7.246145364729302685e+01 3.795991634384458990e+01 9.161926369623310507e+01
5.858159402102137037e+00 6.500823794922686716e+01 8.535366700433517906e+01
5.831749305803876382e+01 5.894210965636048627e+01 9.899525812155957283e+01
5.808411013043729554e+01 7.501150621934880292e+01 8.411218035316080943e+01
2.338168663246188572e+01 8.375595724825910793e+01 9.701041493249570635e+01
9.934838393803435963e+01 6.949886164805507249e+00 9.635340593034743506e+01
7.108369736948721140e+01 5.877506668711356497e+01 8.277548355279539294e+01
9.041466153004178352e+01 6.748718183385467739e+01 8.449054450110806158e+01
8.596756274302062195e+01 9.642170699117470178e+01 8.343573399200096219e+01
2.252912649655945998e+01 9.811780415275453038e+01 8.588993101627104920e+01
7.903104272765104099e+01 9.388640804274224649e+01 8.326675360718085983e+01
5.265327429843670615e+01 5.996095049198165583e+01 9.565081101985548173e+01
7.029969406569213675e+01 6.859449416539477795e+01 8.339665183308856911e+01
8.064799158790626166e+01 5.153687890874759603e+01 8.696796759965410217e+01
5.660528887701332934e+01 3.083794442249860879e+01 8.248055540965837906e+01
9.198900606210115427e+01 9.145870670310270611e+01 9.102933328287440418e+01
9.086481096511957389e+01 2.549887345230339442e+00 9.866613514860583223e+01
1.148782908882254361e+01 5.287039852091987768e+01 9.240546583087335364e+01
4.022917625990386625e+01 9.279527181308502293e+01 8.284319101741013469e+01
9.296997470922836726e+01 7.263965241235736947e-01 9.433127190497545200e+01
4.295581513441081967e+00 1.089604894451125006e+01 9.008726826164209456e+01
9.514804293559599557e+01 2.072345963970461113e+01 9.234821221637726296e+01
5.982332110947449166e+01 9.166571790662344199e+01 8.989465765825920585e+01
3.354793889421816289e+01 7.321719581966256385e+01 8.558310876287994517e+01
4.058211540507564763e+01 3.484582485307912947e+01 9.411420844877204672e+01
8.170190059319784837e+01 8.638106954155944095e+00 8.512208929035656979e+01
1.826324657167656085e+01 2.521542359457471605e+01 9.015376969629510029e+01
5.583451407475054395e+01 1.901050481322042884e+01 9.004890597842756961e+01
6.008480105042094266e+01 6.842052907690042218e+01 8.234014444384054343e+01
4.683205957701181177e+01 6.838820397607959478e+01 9.804721184806291490e+01
1.083580564096631171e+01 2.600681911157120041e+01 8.488360695621889818e+01
7.531849813281735351e+01 2.833256158604332597e+01 8.279175834198998984e+01
5.051535680890631852e+01 5.607964386975158533e+01 9.691308211528144057e+01
4.934874245679876736e+01 2.481256096359204477e+01 8.972932849426629787e+01
4.459236755386653783e+01 6.527616423252709410e+01 8.065353397430367011e+01
6.116612321501484217e+01 7.967232262179817326e+01 9.980361551890368332e+01
4.687632687690451405e+01 8.622967257382745743e+01 8.609397786331115299e+01
3.134268579139704158e+01 1.750755772936252086e+01 8.520126687716086167e+01
7.700327179916833131e+01 5.303530919878871686e+01 8.114575113303416742e+01
9.711498572331356272e+00 7.662913811876660475e+01 8.808689545764187301e+01
5.008191642222424633e+01 3.396180642524115711e+01 8.774859017073288214e+01
9.456612425669082711e+01 9.448236032945345642e+00 8.110521541120607480e+01
2.922889527719498659e+01 7.434406129185823886e+01 9.558771713763961486e+01
5.229809979721656177e+00 5.589932467042139308e+01 8.304575172735883370e+01
7.125246384512267639e+01 2.986670541077863916e+01 8.836046742673669030e+01
8.917377469284717506e+01 5.109181123000590219e+01 9.565935974334389869e+01
3.295003373967584537e+01 3.197485366451040534e+01 8.714560469231422246e+01
1.176888645833803437e+01 7.922179052956967382e+01 9.057778101245797586e+01
6.772444296054344193e+01 2.457787174829465471e+01 9.829799403187396933e+01
3.981113413198394113e+01 6.336017860805014124e+01 9.198586559921054118e+01
4.429714927371956890e+01 8.637744727335038419e+01 8.147388479176701992e+01
7.441840209030200981e+01 9.742840697071328293e+01 8.569356941488523205e+01
6.825135942096461861e+01 4.857059753243917299e+01 9.637054148344336113e+01
8.631574832746670722e+01 6.352793945730985570e+01 9.453334549201703396e+01
8.352118755590775834e+01 3.897320653306250193e+01 8.592464687457646733e+01
3.314136376600342970e+01 3.815154610642441924e+01 8.274200999080039765e+01
5.909240533299298903e+01 7.167679757923052364e+01 9.477170933910220185e+01
3.382647955008375362e+01 4.449351171287744222e+01 9.442561675015819844e+01
1.660853878852299914e+01 7.214146000471333764e+01 9.445494558924133344e+01
9.422413542175694090e+01 6.696337208266824348e+01 9.346039568738811454e+01
3.036363260753405235e-01 8.935129340989711011e+00 8.661005296807917375e+01
1.405092378660486219e+01 4.288813889083166941e+01 8.261609245428719817e+01
8.063092927469263316e+01 5.359662102988440324e+01 9.179214895217657499e+01
2.211215744053207644e+01 4.981946786392179405e+01 9.584942959120905925e+01
9.908036223849605051e+01 3.130551111402457565e+00 9.361273264065671640e+01
2.061392800363964639e+01 7.084301990827609075e+01 8.338922554413724697e+01
6.401649293964344167e+01 9.600105710771329370e+01 8.714205396841202855e+01
8.298877562830519139e+01 5.415364951980584607e+01 8.282171989837144110e+01
4.202701608603646122e+01 9.956345062891224984e+01 9.101924917708026896e+01
9.567129513108505989e+01 1.912751734167383866e+00 8.534348992296045822e+01
4.915925004430218337e+01 2.986293006626202740e+01 8.228831709766411961e+01
1.119344034276864619e+01 9.182484038435393359e+01 8.439810553458177367e+01
6.667567413050784353e+01 7.844850483278568731e+01 8.773053920632273162e+01
3.802086316022656831e+01 4.145469690529546369e+01 8.668154267860137452e+01
8.142475894420563520e+01 1.318333152600139613e+01 8.895449538395399713e+01
9.511036578048059198e+01 9.347771682481575084e+00 8.760199586949542550e+01
3.873850484278299433e+01 6.022979337959971957e+01 8.759813860574962519e+01
2.804198034434158870e+01 2.057163687060810275e+01 8.718987243251351060e+01
1.347707910492219696e+01 1.932437149341592431e+01 8.878323504278775147e+01
7.521724329739265613e+01 2.634500630967304602e+01 9.476199742687194316e+01
3.157311633979880128e+01 4.171893947773229883e+01 8.444730496206531711e+01
3.337716179344761969e+01 9.613967419275174109e+01 9.996492743760363453e+01
6.783406343822717588e+01 2.265039250269122917e+01 9.114327004535202548e+01
8.333679608511103254e+01 7.120354889660143272e+01 8.369403842632628709e+01
7.490575836615055039e+01 1.569016588663475531e+01 8.201339864149848324e+01
3.508196945051547289e+01 1.510026675310097666e+01 9.937123073904629678e+01
1.622777131499610803e+01 1.122887176169440338e+00 8.939062241823701527e+01
6.188705883702095178e+00 5.444294644193149679e+01 8.236865684349294270e+01
1.732313071346933597e+01 1.132015967298699621e+01 8.339364850666768803e+01
9.580999280365135462e+01 2.248007174689046295e+01 8.121727892889430223e+01
8.434893516771102995e+00 2.056438453837522573e+01 8.632329497798397711e+01
6.463743457899761324e+01 1.677242976186337131e+01 9.284702700635271810e+01
2.085496805334439330e+01 8.649806291250887114e+01 9.412912324035268341e+01
5.344891977020716922e+01 2.410694493122423765e+01 8.551812930006505553e+01
7.323953736343069920e+01 3.681075292776549190e+01 8.671684349691888372e+01
3.642786222681581876e+01 6.955704867377873768e+01 9.433096208096188207e+01
5.861371804813959585e+01 7.433638513820024230e+01 9.518483179303255781e+01
7.272351111019638381e+01 7.323099090394505595e+01 9.958704496942524997e+01
1.124105066575232748e+01 3.113208548999081415e+01 8.662493533347318930e+01
3.813709858631202110e+01 3.560868219705175619e+01 9.181763923021421192e+01
6.124474039819941851e+01 4.332808840352513613e+01 9.508435737640738239e+01
5.024244020271606814e+01 9.976127913697018812e+01 9.994657883896131523e+01
1.623525990559192422e+01 3.573302566566945870e+01 9.540968688213943949e+01
8.770890824446290424e+01 2.769453898929341573e+00 8.794273156868572983e+01
9.319593200586908210e+01 4.992856510477478338e+01 8.797857710400597853e+01
8.769384770264187523e+01 4.024021711436105164e+01 8.104691929886122637e+01
5.921001982582546930e+01 5.178862833201483085e+01 8.691191088318980462e+01
5.744337965673977919e+01 4.643619501756688095e+01 9.355841910569627373e+01
1.379108911320737718e+01 3.581236860891637974e+01 9.867797163129230853e+01
5.522497461321687240e+01 6.379719011287342312e+01 9.677486444231000462e+01
9.787310580256441028e+01 3.693723235587205522e+01 8.058240979097656975e+01
1.915757400052878623e+01 6.607749800071745483e+01 8.207365133573915728e+01
8.195024440895322471e+01 7.845562656971416970e+01 8.977484750731622398e+01
2.540922483432883627e+00 3.205028832797789562e+01 9.092601223687914569e+01
7.685506203975140238e+01 3.857516618210499182e+00 8.040528101874278377e+01
9.290841138730409909e+01 8.910497871711038442e+01 9.485789833318213482e+01
4.998257890372336476e+01 1.627836752540864396e+01 8.505806885532551576e+01
9.732830751782202583e+01 1.885443540419300490e+01 8.572282297434335874e+01
7.427226209495518106e+01 3.229316227026360053e+01 9.373263970474778262e+01
9.398458914548511700e+01 7.260737121014170725e+01 8.920708990700263996e+01
1.757838177777322386e+01 3.567050319844339157e+01 9.825677188216904767e+01
6.939353621379349590e+01 6.458241416053270711e+01 9.364684604791146683e+01
7.611252267844342612e+01 7.810247573820176115e+01 8.375851908080339570e+01
9.550645018020779276e+01 1.632921729463288063e+00 8.303615607958097655e+01
9.331829477368364678e+01 9.102141291273513346e+00 8.309418703040543619e+01
6.257699358095688780e+01 9.242726145446376051e+01 9.512835333831303330e+01
2.819731194348653602e+01 6.039314645385612579e+01 8.083720281197767576e+01
9.362658558991154223e+01 8.466706241364141761e+01 9.753471837262961230e+01
3.796477870078077643e+01 1.556452206845826325e+01 8.714869829469198237e+01
5.290567519873444979e+01 3.215357448417106667e+01 9.100080444540850522e+01
9.096524350469935882e+01 9.902516103231539546e+01 9.903421515011827125e+01
8.341162508044305923e+01 9.695560594550565270e+01 9.690419612588829068e+01
2.582987572972572821e+01 8.505530053073090357e+01 8.569575775163730214e+01
5.550417123996119528e+01 1.101304088878082332e+01 8.366553004256958559e+01
4.606646729255913186e+01 8.915391528183184278e+01 8.467890269623066501e+01
7.646203103791474120e+01 2.541550815940152308e+00 9.808649655694563307e+01
9.621973467752921749e+01 5.386661590910005515e+01 9.532244180367234776e+01
4.180722892870095819e+01 8.032565054215858424e+01 9.286366553470435292e+01
7.117749652685174055e+01 3.559913185159594207e+01 8.683722434303690818e+01
4.084177266854036503e+01 8.852519656999598396e+01 9.873301931122909991e+01
9.494242002922270274e+01 9.648074603954344752e+01 9.736374339204385819e+01
2.700620033481582283e+01 7.110235613586161207e+01 9.768013704109426953e+01
7.677780272456470811e+01 4.719101659384311631e+01 8.026289804452814280e+01
7.911023076417006905e+01 6.563392428181697369e+01 9.205199226422540448e+01
4.079325514185331514e+01 6.662761344485154780e+01 8.381582860786814138e+01
6.617062855286445711e+01 2.393030303852736651e+01 8.879819974171175545e+01
4.897008716641207826e+01 3.490240625724428014e+01 8.378752878469455823e+01
1.382056884826151588e+01 3.576189519642445447e+01 8.926611676079988911e+01
2.756601842831260996e+01 4.251502751631385024e+01 8.573140654099800884e+01
2.197183733755303514e+00 8.857653658778100692e+01 8.495560845487420920e+01
6.046690644311867402e+01 3.161444122573853122e+01 9.788867361732339134e+01
1.177778326373375428e+01 8.910877245433333371e+01 9.035478996994289957e+01
9.111124661090751431e+01 7.193381234615671360e+01 8.474475821844903578e+01
2.382776578956283942e+01 7.159534942977970218e+01 9.993767186124047441e+01
5.678978634388004565e+01 3.091452730972578067e+01 9.177914392154386292e+01
6.424430067041450343e+01 2.605785224427301472e+01 9.324820183966512843e+01
2.703197147258570254e+01 8.939183622925540362e+01 8.377850177812867116e+01
7.517350085497746193e+01 2.767502200336152640e+01 9.011820276211604153e+01
1.599046737096317905e+01 6.574254184540453139e+01 9.780172676273242871e+01
5.143093564143807583e+00 5.730276773018753289e+01 9.705718379417336905e+01
7.991902369163028652e-01 2.836729532008347476e+01 9.844132680944321123e+01
4.396520685448690813e+01 6.440099318176338272e+01 9.018119296930258599e+01
8.806436598353531053e+01 6.020488325787449924e+01 9.625120724811145578e+01
4.980153096609958396e+01 4.730529049787786278e+01 8.833170931020416106e+01
8.677779950746526083e+01 7.350926473362728863e+00 9.899373139845528158e+01
5.248656069990656192e+01 1.876960978220425602e+01 9.586359805712444881e+01
8.608036095989193370e+01 6.784538475401909352e+01 8.842267233514714064e+01
6.386363110478804117e+01 4.728702045608649485e+01 8.353015711155101997e+01
4.785347204812450173e+01 9.578490746911909071e+01 8.699319451698342220e+01
6.310652732188182057e+01 4.407713345910533320e+01 8.136796059246069035e+01
3.600842928069638305e+01 5.667698114582184843e+01 9.663463246904308335e+01
7.296030851879756085e+01 7.124385402665532752e+01 8.207590178745630283e+01
4.321380748502644309e+01 5.169789380418941249e+01 8.928530836208658172e+01
7.297763242329529021e+01 9.825032287841381162e+01 8.899923677277770651e+01
8.332736500935148172e+01 2.972557282557899327e+01 8.866702715115562228e+01
5.721652488428916428e+01 4.861112834293964369e+01 9.944824815319944378e+01
1.599094904072248013e+01 1.009796133712853639e+01 8.436324728493008251e+01
8.419114027423009361e+01 7.027018407537254063e+01 9.557653097923385133e+01
8.969328561682658574e+01 5.883397270880132623e+01 8.363490198946973919e+01
5.191829078249510232e+00 5.602353386583002504e+01 9.630177064829743472e+01
8.134865940704005816e-01 4.555698758779727342e+01 8.811651159055551830e+01
4.173114014928111715e+01 7.754520002752379071e+01 9.183373981079439830e+01
9.217109705850060664e+01 1.699858193271731466e+01 8.103889917308920587e+01
3.469398469955139319e+01 8.830483628312130406e+01 8.847056783312150685e+01
2.607288348880578610e+01 5.570815695045003935e+01 9.682576734835969035e+01
9.701147105911987012e+01 7.734366978419458860e+01 9.998314824209903406e+01
4.842375957530052943e+01 9.226954556052380241e+00 8.696419387402482926e+01
6.999083748672465788e+01 7.028033878908792076e+01 9.736597112343156368e+01
8.488517608486624511e+01 3.667193350426922649e+01 9.925033040793319117e+01
6.330600689463836517e+01 8.137119653965848443e+01 9.808403802713401376e+01
1.496186124706204623e+01 7.704588750947307574e+01 9.134813007619463576e+01
3.840862740974413470e+01 4.206483051668143958e+01 9.177662973950370429e+01
5.406617056535296939e+01 7.098010191089002774e+01 9.555648936111876424e+01
6.723900758338774430e+00 6.105587150877024527e+01 8.312714894960592460e+01
9.195004772509737734e+01 4.116510330407682261e+01 8.118028774109548351e+01
8.477643643885038216e+01 3.352576919689852275e+01 9.366504587176231666e+01
6.258754587846387807e+01 3.634970612903607190e+01 9.524540761672157885e+01
4.181480727778108530e+01 6.969486694834603213e+01 8.798878259649029587e+01
7.342781237367894676e+01 5.991870030468390240e+01 9.066685678773167467e+01
8.364149141759776285e+01 5.667491970333477269e+01 9.742624654211692814e+01
7.957114224194690166e+01 9.929818539700083591e+01 8.117376528968711114e+01
3.659382527526487650e+01 4.302164842384614474e+01 8.614880327609071742e+01
9.380100250771610604e+01 9.605854181990245877e+01 8.971829727638606755e+01
3.643761389619047009e+01 2.652664401770775626e+01 9.670542003357633121e+01
8.867884509254632519e+01 9.985359986128480614e+01 9.084128876831803723e+01
5.458582527832954412e+01 5.700875413701428585e+01 9.967700001467171944e+01
3.965602546041648679e+01 9.770214344450263866e+01 8.979559235573582043e+01
9.190913508110041619e+01 6.113959010661886850e+01 9.660865456860032907e+01
4.374874689668332906e+01 9.835494364738224249e+01 9.988479485749240894e+01
8.257419285835612754e+01 2.496695770676304704e+01 8.562043118750619897e+01
4.416948287986589605e+01 7.508321431729468998e+01 8.615978475198689068e+01
5.462453367800297599e+01 2.781574197565583884e+00 8.306756684194152740e+01
3.663475981719383867e+01 3.088147076596839824e+01 8.848655474575443236e+01
3.829454690936080397e+01 1.548602927039032195e+01 8.227218308009062753e+01
9.839656487133265728e+01 5.078062083056321541e+01 9.475363300965116764e+01
7.486414779942201392e+01 1.798730262528442836e+01 8.925192900060103796e+01
2.023922323795454048e+01 6.049549990275168909e+01 8.110445411764330004e+01
5.114325065873707388e+01 7.154036070424957927e+01 9.893416765714054861e+01
5.003804410146543091e+01 8.435320115602613100e+01 9.054422619795863625e+01
9.810309747327269747e+01 4.258960459211985494e+01 8.026722952009068024e+01
7.428204740608342149e+01 8.691806473678617806e+01 9.742480378945390385e+01
6.000141066849140614e+00 1.605486459728389192e+01 9.179610242758379002e+01
9.167773760642351988e+01 1.491246328291908618e+01 9.472614524641650746e+01
6.728157677153848226e+01 3.192772198711475440e+01 9.011520479099232261e+01
8.937016471415116570e+00 9.379216686356117805e+01 8.165167951299288518e+01
6.860086569570715653e+01 5.628309968221527981e+01 9.864412319452323175e+01
6.167770168851147616e+01 2.900251551426413776e+00 9.493338407864172268e+01
2.412472431092604896e+00 8.370839345693170230e+00 9.670519646058797036e+01
8.790468914928018762e+01 1.198810388425005691e+01 9.398523434808889476e+01
2.700990456996868971e+01 6.506700679046439895e+00 8.913328961992816346e+01
1.395877189719708689e+01 3.478051855130289738e+01 9.097611291627684693e+01
9.459953822659372236e+01 5.042615070400150756e+01 9.873029303493315467e+01
7.575602239724558729e+01 5.711462502200752311e+01 8.122212128676896725e+01
8.588166267935103804e+01 7.452417022614254982e+00 9.950481260782329684e+01
1.688494683920355044e+01 6.127465187250402678e+00 9.365788279778867320e+01
3.798835026799065417e+01 4.678768009950594831e+01 8.430380912602051069e+01
9.088337031912733721e+01 1.248262419535368650e+01 8.772831606322681353e+01
3.984501581900530454e+01 5.652179669775038207e+01 9.608802381375618040e+01
1.832617122469187976e+01 5.126266122174194528e+00 9.661534209806478657e+01
2.160852687121268545e+01 4.408957080715680377e+00 9.403606634728795655e+01
1.337272089056934554e+01 6.717507041471759699e+00 8.795665663802206780e+01
8.709868467267652647e+01 8.498879073685262142e+01 9.503982934693748064e+01
4.310926930065909346e+01 3.323059125084696319e+01 9.021469576151211811e+01
5.796146232960883538e+01 2.973254947310914886e+01 9.285627425055092488e+01
2.360240464553989881e+01 6.958204150103706809e+01 9.944335724909630869e+01
7.119735690852746046e+00 1.644039009658857609e+01 9.233165478477887689e+01
7.571246451588959303e+01 7.851073135661796698e+01 9.654071763617811541e+01
3.383537534736992569e+01 4.511150387026220443e+01 8.301430242053288566e+01
9.741662079402196639e+01 4.678895215469158586e+01 9.947696837599033870e+01
2.537505411316807269e+01 7.091560058666682664e+01 8.282900152988209186e+01
6.363733447053878933e+01 6.913838721025422274e+01 8.333700749033177146e+01
8.527210375267716813e+01 8.110999339905269778e+01 8.379006868901868188e+01
3.930151715820752401e+01 2.732370107254252645e+01 8.362927375754050274e+01
7.044268312325405645e+01 8.431241346730365649e+01 9.835906493820554886e+01
4.313241577255113413e+01 9.223590961249030329e+01 8.252985786005268665e+01
2.256192356452232417e+01 8.490583881381652986e+01 9.079141497385634807e+01
5.187638675965177271e+01 3.727046170739941289e+01 8.578482365292710199e+01
3.064565297757571116e+01 3.446609696581103321e+01 8.020832380669958184e+01
2.668725784931966771e+01 1.246211117267297297e+01 8.250454307995022418e+01
9.283523842570538420e+01 2.884797998969331800e+01 9.567243167631744427e+01
4.432532474385381249e+01 3.626065806213486553e+01 8.038853948845013520e+01
1.246145650847056885e+01 6.445058421951294747e+01 9.822888811723980496e+01
5.094800087737771932e-01 1.318382572805155739e+01 8.881928240884303705e+01
7.027621962149443391e+01 4.437805026604026182e+01 8.865387911790759290e+01
5.002583921400992750e+01 8.062533703081533076e+01 8.197116152767563335e+01
8.272161271642897873e+01 5.997826829968632012e+01 8.357519289028289222e+01
2.280779063426649955e+01 1.130703936003805055e+01 9.799601731253491721e+01
4.949538072925808052e+00 7.796148607905118411e+01 9.572091048458473495e+01
2.125268796049649822e+01 2.158441099459686896e+01 9.532404989157748787e+01
5.994976497452186948e+01 6.445443508621760031e+01 9.590929685573732399e+01
5.440070558585890836e+01 5.602806677313257921e+01 8.617927030752066742e+01
4.501114806352104836e+01 7.937915098521315826e+01 8.249609810250213116e+01
1.737362455889007862e+01 4.246636964766204869e+01 9.417078011309943975e+01
9.336711949431455082e+01 7.381486089345284540e+01 9.963265046978389705e+01
8.268372222550929962e+01 6.425313979443706103e+01 8.242991292710183870e+01
1.035170146398750646e+01 3.926438842234182403e+01 8.894221191812724214e+01
3.185362431242513281e+01 5.896693848931211335e+01 8.037144077287177879e+01
4.994021735329161515e+01 6.179016830360316703e+01 9.546324140056299257e+01
7.428696250576786042e+01 3.903478025541945584e+01 8.906267410562382736e+01
6.364968681324737787e+01 4.035293977309728319e+01 8.653756023241257367e+01
8.078420690482785460e+01 7.585706989696700475e+01 8.694000326168259107e+01
6.735319756301816341e+00 1.208804865446392363e+01 8.135646524801589408e+01
9.192080782008278561e+01 6.833764594078944299e+01 8.483433905460859137e+01
9.942964203534859280e+01 6.305593988439600395e+01 8.027058551662393882e+01
4.741282380726619294e+01 8.661796143157017980e+01 9.156860178626801883e+01
9.386317294107847431e+01 1.220444979611746739e+01 8.248026176167762458e+01
5.586112237382754131e+01 9.599618150009622752e+01 9.344029185492320266e+01
3.290523613590251273e+01 2.565897582525844456e+01 8.256958275698400485e+01
7.826036446885845521e+01 3.276628795629778068e+01 8.734439223809525288e+01
8.291507255027463330e+00 2.740120497742527661e+01 8.820698342725782481e+01
3.649188978316946219e+01 9.591164043838209352e+01 8.268331037329424760e+01
3.419060594346446891e+01 3.285247807615249371e+01 8.949406649842907768e+01
7.383222791549080455e+01 8.829418599556948521e+00 9.002978080086656121e+01
4.147625206556357824e+01 6.973019098522826198e+00 8.566748009256997420e+01
6.822442909473780048e+01 5.835522140779858802e+01 9.268537490037044790e+01
3.041001025619334186e+01 5.171282213308616349e+01 9.762061691704472821e+01
7.445290290106274256e+01 1.833078392153714020e+01 8.891961659436444165e+01
4.835154200066159547e+01 8.556268689507989222e+01 9.681515558849615388e+01
4.064878059973541014e+01 4.921090402557414478e+01 9.358065018688151326e+01
4.779115872777510532e+01 5.372074773881580967e+01 8.162498746528848415e+01
9.726109351141542447e+01 2.402847019402202378e+01 8.587660521500282584e+01
2.735970998391465869e+01 9.311024309288417555e+01 9.913117555556277694e+01
3.678092489940494403e+01 7.457433780968862891e+01 9.705117630392518890e+01
3.694624627557142560e+01 8.179434558522500254e+01 8.478620997163925210e+01
3.083136424976001777e+01 2.940252678042861589e+01 8.286075290994207876e+01
1.672878101860545286e+01 6.312702567926650943e+01 8.223922275758332034e+01
7.807074064740044150e+01 3.274076960913172485e+01 9.682123807644973112e+01
5.270815025194918846e+00 3.715793545436535084e+01 9.395684101545343481e+01
4.461184574316817475e+01 9.170401912692373969e+01 9.311456103350562330e+01
4.628013538155610007e+01 1.499898863434094842e+01 9.259451108468714153e+01
5.059894491760977076e+01 8.655487963023938391e+01 9.065556496627766592e+01
9.913227578821614827e+01 6.974534518903647040e+01 8.326858089422451314e+01
7.284128134068012628e+01 4.155867801536169281e+01 8.441624420205147317e+01
8.129214491631380213e+01 5.715174398355207330e+01 8.447661002135366459e+01
8.997042003378655295e+01 2.480951317122547195e+01 8.286609369391972280e+01
2.352914574863296249e+00 3.801865539531824822e+01 9.923635536045559036e+01
9.394442523961548375e+01 6.083643116295722741e+00 8.215996075920003250e+01
5.277568973847445477e+01 5.788704264687039824e+01 9.646035593649162365e+01
6.360646356088444975e+01 7.983806325844173557e+01 9.873881192450328115e+01
1.506487344227431890e+01 8.958108890691023873e+01 9.561501944785827334e+01
6.494971518337473526e+01 9.968414814873382568e+01 9.904210166484243416e+01
1.372976975474187178e+01 9.012357888306729592e+01 8.682481431646402825e+01
9.734265461691113330e+01 2.670900794754821206e+01 8.761669606295893686e+01
4.464705263193693696e+01 5.820397520919995316e+01 9.005246714594441926e+01
2.585477644247974283e+01 1.943835534248106001e+01 9.307067980028048737e+01
8.787610119238833306e+01 9.464496507477723242e+01 9.171335220728639115e+01
6.648185147307050791e+00 1.228751357430346580e+01 8.038911961527361427e+01
8.692522221827170270e+00 6.766671331652261756e+01 9.845027757686990810e+01
2.222674811590225019e+01 3.438484033860432021e+01 9.990085211943534205e+01
9.302442641666797840e+01 7.823373639497099852e+00 9.802239272193661179e+01
3.998816561585747564e+01 2.890454860884985777e+01 8.151154508376627916e+01
9.554730712405827830e+01 6.897324165055690059e+01 9.520545217718020581e+01
4.905916801549567907e+01 3.309219070150268038e+01 8.188661243023994984e+01
2.041304072119164559e+01 9.331741481646118075e+01 9.116533860713251158e+01
3.955048868747215352e+01 1.428622196342782580e+01 9.927994474111318368e+01
9.095259746665517753e+01 1.127237964938125891e+01 8.177483141805964806e+01
5.195610941413010408e+01 9.687045089878736803e+01 8.465569660129843044e+01
2.818947342264629441e+01 7.442649396561546382e+01 9.153600215824442898e+01
2.047838374197841205e+01 2.127676769194950523e+01 8.608742496476024542e+01
5.055946445801887990e+01 5.701093483093077907e+01 8.318267586244790834e+01
7.583354324142639769e+01 3.902714368434947545e+01 9.779023371675390308e+01
5.541367961414610477e+01 7.753258583757583366e+00 9.178745708866617292e+01
7.902353292239554605e+01 2.306253031069991266e+01 9.058293944649663842e+01
9.525486590183487579e+01 6.239157632421304100e+01 8.155493697940995901e+01
5.615699930773750737e+01 7.382168434314192496e+01 8.373887772701934296e+01
9.170986074806891963e+01 8.954855188275087130e+01 9.504454109813427465e+01
3.652098160900587231e+01 4.946872034900143689e+01 9.533310162059416371e+01
7.807941064618746907e+01 1.699525369176897271e+01 9.654080123041546813e+01
7.207876876112993614e+01 8.502725431071057471e+01 8.991692036583887671e+01
8.785453871954990746e+01 1.328384527595696341e+01 9.297549196988745734e+01
5.544776463807578892e+01 1.301916348275630142e+01 9.890611859694101327e+01
2.199196510519367820e+01 6.943638206732229889e+01 9.185554435746723811e+01
8.415946941327713660e+01 9.523174584132307530e+01 9.797941551137029137e+01
4.658390659468349071e+01 7.479491935160291405e+01 8.199001684647582522e+01
8.349039369759235285e+01 6.712414552795951295e+01 8.523763995456940279e+01
6.806381132129224909e+01 4.609433827871358602e+01 9.022241457726163105e+01
8.893787083894821421e+01 8.048069105447164873e+01 9.059691054000028032e+01
3.695535666846573264e+01 8.154714782020387531e+01 9.674990053416621549e+01
6.839238081886139753e+01 2.416096785652667123e+01 9.706052374849100772e+01
8.135756491337808427e+01 3.823412588644560373e+01 9.884672757640895213e+01
3.897291308835693968e+01 5.006540251513251860e+01 8.374875485803134723e+01
4.400290675373336313e+01 6.464857853175539049e+01 8.831696052826127641e+01
3.517597331274270545e+01 5.154058922408189858e+01 8.597601867562875100e+01
1.077267064923199769e+01 3.144160588507182297e+01 8.409233894841577239e+01
5.926983057719186121e+01 8.991356622310068758e+01 8.330833578808574202e+01
6.392350926938144084e+01 5.679846621640434989e+01 9.424764215302744219e+01
3.586968676756602292e+01 6.360637546566347567e+01 9.226116737677904212e+01
6.239814465760582607e+01 3.809269651757289665e+01 8.885456565682086705e+01
9.345203265100523993e+01 5.630217326481587747e+01 9.826743307397035210e+01
4.626979822797322583e+01 4.298314369954617575e+01 8.521804764260760123e+01
4.040807381336246351e+01 2.867570594827060404e+01 9.796417505955926686e+01
1.081331146411973521e+01 6.493903816068777246e+01 8.931073552745189659e+01
4.859570358540506163e+01 9.882050004946208333e+01 8.778295863972284963e+01
5.081091330266617234e+01 6.571356476403397551e+01 9.573394585004302826e+01
3.308857725730772614e+01 1.507341267602030399e+01 8.566747980481939351e+01
1.957003899603845198e+01 4.062705098625109912e+01 9.542205744849498217e+01
7.672304030405252107e+00 1.111795183861086223e+01 9.079715083705556822e+01
1.371978144923647847e+01 6.512464535707212576e+01 9.263895857405083234e+01
7.665149899743222761e+01 1.744953471506071097e+01 9.643522535379761962e+01
7.932164522460665523e+01 6.928810637329159761e+01 8.846735925083744689e+01
6.143399314045250037e+01 9.624490304727754619e+01 9.911886098430689174e+01
6.632841850854650545e+01 5.566305806702794001e+01 9.165729924219512270e+01
2.528747139558721457e+01 2.675431996328496709e+01 8.890649375748310490e+01
1.462611229418234693e+01 2.286249751277794573e+01 8.048907837071679694e+01
3.692121809401013621e+01 4.950441850847634129e+01 8.887025441208878362e+01
1.393846629330028897e+01 1.636714015378415432e+00 8.023051391802373189e+01
7.889269734149793578e+01 4.501342187691180641e+01 8.230033216946009134e+01
8.674937311208915958e+01 9.807110400135712780e+01 8.690408650128139811e+01
3.516183362081892483e+01 1.570028345401411940e+01 9.465980464892200530e+01
4.767113428197816916e+01 5.973643900652226790e+01 9.099947849097890185e+01
9.761010384783465099e+01 1.090860169576773941e+01 9.311109578826149402e+01
6.952160481737244879e+01 5.243517310742987547e+01 9.937368072359019777e+01
9.688758704988423176e+01 8.955948860500053854e+01 9.195803283280092444e+01
5.341459412084336833e+00 6.334704327177968253e+01 9.783616749325339867e+01
4.319268414501132014e+01 1.133731750322397502e+01 8.215790741450611279e+01
2.472909803271441476e+01 6.788766833129955103e+00 9.114969312573188631e+01
2.483008231022756362e+01 5.879412568242955217e+01 8.553260061991187513e+01
4.645503102670534190e+01 2.066723433109005725e+01 9.072760258850377113e+01
6.687783631015054198e+01 1.454499808842989417e+01 9.457398970369035851e+01
5.230615586134106110e+01 2.917723523527379115e+01 9.535528591834287226e+01
3.992770590137115505e+01 6.528723772168331152e+01 9.888444822848913418e+01
6.214321675895136110e+01 8.606377178777405845e+01 8.951531439343929719e+01
2.177288053923937028e+01 9.685554380082628256e+00 8.069016892657630535e+01
1.028611035438392562e+01 9.058748638343661241e+01 9.684395602318905105e+01
5.385808386804691317e-01 4.958163741520057499e+01 8.478504787787178998e+01
6.125462234682406404e+01 8.741692633688748515e+01 8.275806744475121945e+01
9.988088105727148047e+01 7.601466216811139986e+01 9.969357602534297769e+01
6.622230145359357323e+01 1.493022669354866494e+01 8.767366850027659098e+01
1.657801823773714744e+01 6.861718342485639255e+01 9.489354032853050569e+01
6.533125088158983829e+01 4.096148387313248662e+01 8.938392475020798145e+01
3.487997710295215370e+01 8.105842164962047036e+01 8.889846725662003735e+01
5.284614584159918138e+01 4.047033982515557682e+01 8.845029741341386398e+01
4.209219418132105517e+01 6.168135268457356801e+01 8.051878742110777409e+01
5.892085022986247367e+01 1.454934182514065988e+01 9.050209381019702448e+01
7.512154363414839509e+01 5.516843812091953936e+01 9.512513668261452437e+01
9.618683292075374425e+01 5.019561118387160548e+01 9.538914557862379695e+01
4.373592521217236850e+01 7.647697080275345627e+01 8.022325462839420140e+01
6.799531941946013092e+01 9.787933921386782643e+00 8.464362023024646930e+01
5.805311279670524272e+01 8.171384539077094189e+01 9.249340178694926351e+01
3.628994266748447473e+01 6.958611968393212521e+01 9.640069631853829435e+01
5.505737780479685028e+01 8.438638139328810439e+01 9.093307953296670121e+01
1.966675756597441449e+01 3.547636627902882367e+01 8.828484438033152060e+01
2.346238081567700817e+01 5.406810174415885939e+01 9.060837998612475985e+01
3.688306042667036877e+01 3.372442134772505540e+01 8.779884144737465590e+01
6.651498631563781316e+01 7.480787683531592336e+01 8.289019560632490879e+01
6.491523944316408290e+01 3.021120630826490405e+00 8.020078179844738031e+01
5.425910244415343975e+00 3.595546334391210053e+01 9.909281055852238751e+01
4.848325660132790915e+01 5.771659471951517162e+01 9.831098235630247473e+01
6.312708805075138940e+01 2.199827042463695648e+01 9.460248542311553877e+01
5.632372412523557159e+01 3.073055066388308276e+01 9.356674803166875165e+01
5.724896590588771517e+01 5.712055039080645713e+01 8.961030299966854784e+01
5.985243596081913253e+00 6.054810518051763069e+01 8.708166727186451794e+01
2.852741261003271944e+01 5.243554848524383516e+01 8.837372123450560935e+01
2.227319578917197340e+00 2.998963820862188356e+01 9.194464070840872694e+01
