7.455759760589887719e+01 9.854715411217857479e+01 8.682585852398672088e-02
6.263218666508188903e+01 9.783553812959692664e+01 2.326920112907651017e+01
9.960775206949332983e+01 4.095558685974736335e+01 6.605276306112324392e+01
9.514859030123290040e+01 1.955480635063070594e+01 7.949766347604668226e+01
3.608075197090456498e+01 9.000154905139744699e+01 3.358129045073424379e+01
5.775060515280232210e+01 6.817616820210228923e+01 6.286707510984227554e+01
1.441457028396828655e+01 3.313008925553595496e+00 9.987115745639231079e+01
3.769741443446304174e+01 3.117722844707608942e+01 8.884690477754119797e+00
9.335318199434669850e+01 9.046926829409596138e+00 8.085580447001970583e+01
9.325639392192817922e+01 5.421910642247174117e-01 9.148434623602953764e+01
8.767540004531842612e+01 8.265284700396587425e+01 6.538354039090367564e+01
5.394401482094421141e+01 4.209775179199033346e+01 8.077257191608821074e+01
3.450798695288521856e+01 7.579321377381317859e+01 6.044402343159096347e+01
2.312701062279903752e+01 3.414818534464139077e+01 7.041059521369614060e+01
8.280387451045867486e-01 6.472344712312838588e+00 4.806581672748932021e+01
4.150188144147920610e+01 4.797027878222070996e+01 8.999564411104896067e+01
3.280341429896117234e+01 6.068752813292736192e+01 5.570875490470831437e+01
3.725364158173623252e+01 2.890428323032390168e+00 2.236107418440370509e+01
4.287172651984963778e+01 7.707212819426906947e+01 3.417213497082519780e+01
8.415050768967977035e+01 1.444209763747164033e+01 9.828696098743549214e+00
6.382494934404494558e+01 2.199316711326320117e+01 1.285862685488245916e+01
8.597305414153457548e+01 2.716589953023236248e+01 4.934215137896666903e+01
9.991422622650586050e+01 8.676130623964564847e+01 7.896098964862562752e+01
8.039471829747758136e+01 7.695311865852309552e+01 2.208251892920106840e+01
8.995530550145456061e+01 2.992233916340402189e+01 8.923561564748682429e+01
1.771462007711521736e+01 5.613517905671081820e+01 7.596625182004612675e+00
9.701759276979045410e+01 7.298693047930171929e+01 9.600147772765581067e+01
3.440176743847689522e+01 2.316820309927168964e+01 1.744864844575926099e+01
6.137535200919013079e+01 9.064360136357386466e+01 4.550110193420825766e+01
7.082975703929959366e+01 7.837424314705761219e+01 2.540848811076302738e+01
6.086527186198016182e+01 8.196072705473238784e+01 3.866146577219807767e+01
9.464039592606432905e+01 7.264909503808414826e+00 6.457117490657488190e+01
1.014911920534126111e+01 3.202729487568424105e+01 5.513603453655883158e+01
7.347177676550778358e+01 5.973065933362337177e+01 2.168267232577989390e+01
2.839014288671726405e+01 7.070494224311578080e+01 8.772105818306725666e+01
8.418103484806196946e+01 8.398272052416095335e+01 3.809617890077960567e+01
5.213184991409423219e+01 3.096686027409407771e+01 9.069660554883274273e+00
9.763760016525959884e+01 5.478948728187668848e+01 9.913872187177105388e+01
2.142276868017488667e+01 4.488690551083631419e+01 8.541146400736597855e+01
4.005571530409683589e+01 5.719180858195420569e+01 6.485656400594137949e+01
7.756195176312715489e+01 6.757826892878671288e+01 7.869396087958094199e+01
2.673215821205138099e+01 2.783431596956043030e-01 8.752631717630276853e+01
6.482593539449730713e+01 5.445905038154621280e+01 7.688670811065099997e+01
9.972383571488859388e+01 5.041975034160302016e+01 7.237146085245240101e+01
4.379199820756040396e+01 2.022625004601978915e+01 8.767510669689887948e+01
4.719106033371488707e+01 7.171340203952210857e+01 4.086664338994735601e+01
8.139393910368477236e+01 9.242663795718496544e+01 4.263219654588137075e+01
5.760108766892940935e+01 8.170939533559121060e+01 6.991051383657725182e+01
4.024736027855394838e+01 5.566949663053684105e+01 1.604730514570626809e+01
4.012567697238664977e+01 7.692920390044645274e+01 2.239458110858036832e+01
8.894200264528892319e+01 5.638441238106693731e+01 5.584439333397283178e+01
8.091627692972425123e+00 2.074487650796166349e+01 9.451592467001761122e+01
6.922153688079202993e+01 1.410511838843486743e+00 9.997177631292217370e+01
8.319147734312731757e+01 8.120712311538569850e+01 5.717239150194707520e+01
4.539605618648194962e+01 3.024545423842950331e+00 4.344452535441413232e+01
9.947523670833174947e+01 1.010463418555390724e+01 3.849512855617633988e+01
5.463794206307868251e+01 8.968722442389487526e+01 9.601307143706538483e+00
8.193196137799006351e+01 1.440937306088451209e+01 3.612712900637767888e+01
5.078062707586117597e+01 5.922907745063603357e+01 8.866852286440438036e+01
6.933179239009497508e+01 5.398264495862763113e+01 1.029472924682627344e+01
8.360859710756386676e+01 1.411319783401924255e+01 2.298738343477999635e+01
4.747444387838362090e+00 7.797819136426131337e+00 9.342750559488769113e+01
9.033877862563817018e+01 6.713851398447712171e+00 5.360216124312784558e+01
6.364752366764015079e+01 8.911279775402121572e+01 9.883380344105333393e+01
5.164758058053058676e+01 6.038041751307606830e+01 7.903157812038278962e+01
9.030028275353546974e+01 2.933984302687598955e+01 2.619515944469180724e+01
2.387260492925328137e+01 1.082415406098908761e+01 4.395819601653039754e+00
1.292659725463332165e+01 2.183878794527900169e+01 7.581521462945057976e+01
3.189434643097960276e+01 9.769951089318040260e+01 5.051792656152079530e+01
8.030353433062145996e+01 6.446665763349187728e+01 9.980946397647731771e+01
3.051484640343842258e+01 4.336315199882990612e+01 7.496236232611885875e+00
7.099011069594264711e+01 9.259759300833404438e+01 8.075062894870215757e+01
6.038732020902104480e-02 1.528141684552065627e+01 2.941190850790572497e+01
1.727266327870885476e+01 5.888368843504288463e+00 5.446717303866103066e+01
8.400626940793452491e+01 2.817347170682368329e+01 4.818011538359701085e-01
1.118968983034555009e+01 1.995786093553843088e+01 4.080721982734173281e+01
4.111997694667376635e+01 1.117889593466869780e+00 8.748410587457810550e+01
5.738054557723560833e+01 2.348422804947399811e+01 6.636658041223344640e+01
1.153955574190973543e+01 8.141484030620199519e+01 9.253002983366538103e+01
8.002379870508637794e+01 1.314927094126572271e+01 5.022070357482091651e+01
9.878930277120426240e+01 8.400531732348642322e+01 5.601693695610205737e+01
9.958331552809029574e+01 4.327039053247045075e+01 4.273469942743128058e+01
6.656600198511981148e+01 5.143319467105211373e+00 6.579703258992977055e+01
7.447803109488059903e+00 6.718044425657365082e+01 1.321105547729919394e+01
4.017163419875988950e+01 3.507069555206544464e+01 1.910869343581127566e+01
7.800649395484748894e-01 8.178501797192726031e+01 3.253901115434375413e+01
4.260683449801895506e+01 5.321033282829150579e+01 3.443821255173875784e+01
1.657157174760533991e+01 7.088547254714501378e+01 9.748025740273691042e+01
5.709672502356985291e+01 9.943807220858985829e+01 6.338766078161118145e+00
6.018887566411711276e+01 4.921930444734601195e+01 1.213282253359617613e+01
1.527399831291245036e+01 4.430091824320525618e+00 4.365521781484000741e+01
5.733769551183554469e+00 9.849506159874903233e+01 7.724313141726435461e+00
6.209007660828098807e+01 5.478591876439526942e+01 2.581533785674051629e+01
5.611852036344058092e+01 4.127420854065992017e+01 6.036313539661507832e+01
5.361988091254308131e+01 1.975922594394714338e+01 3.249418399059754847e+01
7.932450723101732137e+01 5.818381241652860325e+01 3.157624263106606577e+01
9.515104566869862879e+01 7.752136676228315082e+01 1.971831320430741386e+01
4.220870466464171500e+01 6.371995219670869659e+01 9.079186008417777032e+01
3.911701501691911886e+01 7.416075956827749849e+01 4.605929612048852562e+01
5.173808550623865443e+01 1.862541072336291137e+01 8.142657673682491293e+01
1.788701940894475939e+01 9.111015499436977905e+01 9.233867544035796016e+01
5.418152700956887458e+01 7.994014825237829314e+01 9.082542692492070557e+01
7.063154015137574504e+01 5.639446907115240748e+01 5.842179891754231136e+01
2.401145162637675767e+01 3.165648758972034926e+01 9.978321833361968629e+01
3.372156507953116034e+01 1.531714626502751386e+01 8.103389964203951479e+01
5.290404102582524359e-01 7.309331512636370576e+01 9.346136182618698740e+01
1.268378603819886319e+00 5.813602148998815267e+01 6.387781280738798273e+01
1.100579975131010801e+00 5.767456576113865196e+01 3.308135152644778998e+01
2.488378362070973182e+01 1.191984684386637738e+00 6.538570457930251223e+01
7.201701530735372003e+00 9.784809166221313603e+01 1.797803925599171748e+01
7.426756466205451090e+01 8.670916753326271476e+01 1.148307022524465104e+01
1.845411904146514459e+01 5.959674934135061619e+01 3.195660309802411803e+01
6.533242501109324962e+01 1.374148480797354743e+01 6.078196445719694907e+01
7.382905639657411712e+01 3.234546230850909865e+00 7.352901133298392722e+01
2.999182509323343737e+01 2.458092673666795136e+01 5.262262257156757883e-01
3.072047618835892635e+01 2.694475666662161473e+01 3.702282230407886487e+01
9.992758734757425998e+01 2.513553258695036163e+01 8.555537989631017126e+01
1.234303230032596232e-01 3.135028424184396201e+01 4.941245272136105626e+01
5.822045859594348372e+01 3.881300037795401181e+01 9.952356181915413913e+01
3.175018899503667669e-01 3.631852024521789701e+01 7.043292917103427442e+01
4.283152541110821687e+01 8.938833767129889907e+01 7.594803816566036403e+01
6.095526144827169190e+01 2.554058201495021763e+01 4.040502163721468776e+01
5.330649889236138961e+01 9.721717240259670234e+01 5.715915008627029437e+01
5.345154868280249616e+01 9.445389902260581394e+00 3.693398902194674349e+01
2.217085461125400769e+01 7.710789676208662513e+00 9.500240612437950460e+01
9.980564715531014031e+01 4.709836229943277175e+01 5.259769532674634007e+01
4.318254398913140335e+01 4.631657022887094399e+01 4.564902167902666008e+01
9.929052799570147414e+00 8.636159661109710228e+00 2.988630766972707420e+01
1.091533618484020707e+01 3.478677571081786368e+01 9.302962209618929990e+01
4.717135141582849656e+01 4.497098314439518418e+01 3.103650327956937360e+01
2.821749230240468975e+01 4.078398647468722515e+01 9.045260501613047666e+01
3.094691667528051227e+01 4.162331444755923116e+01 6.819559876970330947e+01
2.969084200989759026e+01 9.902983937798659042e+01 6.871177202093498693e+01
2.427838822870281987e+01 9.113858934669603684e+01 3.265407251223728480e+01
4.505673031558134056e+01 4.600971716461233996e+01 2.624157450749042830e+00
3.513136847449026590e+01 6.092579636596362747e+01 1.411979886327940914e+00
1.778450655385163159e+01 1.540065913831508659e+01 2.801260157215957847e+01
3.263245767260286812e+01 1.036364409888257399e+01 7.649256234803214483e+00
6.941704832803765157e+01 4.959751547852396669e+01 2.136751881161723787e+01
2.143489039854788913e+01 1.312017765008899328e+00 1.744939480061704629e+01
1.755964231662573383e+01 7.466515112005602361e+01 7.540065419609265973e+01
3.024416429689749108e+01 9.955510725168997510e+01 7.905303039581147573e+01
8.308471677511859355e+01 3.105329962715192949e+01 3.795624544409466949e+01
6.384637389098788418e+01 6.481160466095266770e+01 1.168105976375605159e+01
8.539062483491505873e+01 4.581513075548201641e+01 1.702180792040797286e+01
2.740038494357827048e+01 6.732952098354101622e+01 5.028982144241872732e+01
3.993827680138284109e+01 4.710163255254398962e+01 6.817177057956762098e+01
4.026910881892403893e+01 6.974708217191838422e+00 7.217051104627924474e+01
5.697591681754143877e+01 3.247605183181234700e-01 6.581426214651675366e+01
7.938652856313410666e+01 9.768865736470142735e+01 1.139547849280440062e+01
1.275907414354337988e+01 6.231719056430652159e+01 6.866515710664583594e+01
2.892477590070724602e+01 1.366343304299062567e+01 9.059659091924068264e+01
7.487597246848382326e+01 4.955450077602662162e+01 7.637051404242718888e+01
4.360955308695402266e-02 4.592905385630226078e+01 7.997787412157234144e+01
3.581678066986060394e-01 9.067334710589302915e+01 1.846983612767327809e+00
2.726906546430588563e+01 8.247095077509813166e+01 5.804967306545927386e+01
1.350633775482605969e+01 5.098083279099632392e+01 3.822520695585307493e+01
1.048085493982365790e+01 1.043654403701381739e+01 7.526133454886885232e+00
6.549605874795672378e+01 2.795230538868220904e+01 9.298275997121091052e+01
7.828409566364103966e+01 2.756235526010441106e+01 1.828256581346263587e+01
5.205108467235278624e+01 4.441817568920669146e+00 1.136025472593407137e+01
4.679820943245749731e+01 6.560927142951827307e+01 6.435804458947103512e+01
2.166130099774589013e+01 6.691902287798301074e+01 4.873188846356891091e+00
9.997686886150377461e+01 9.398218846115767633e+01 7.331926410031253738e+01
5.905356107299806467e+01 3.362986413464346214e+01 6.722026015726312664e+01
5.243290511051791469e+01 1.080310200806667886e+01 5.701514335971184266e+01
3.299895901420269695e+01 5.013603900878500497e+01 3.402984002396063090e+01
8.462413862427877120e+01 5.132504094719288190e+01 4.406941367822165034e+01
4.942286591341596136e+01 8.354145699753618715e+01 9.958683228659815256e+01
4.482286515743641786e+01 4.391070326850320527e+01 8.200826632433998498e+01
1.915596966128106970e+01 2.129718403202299726e+01 8.944593413306812124e+00
1.478840047351669362e+01 8.013818668558458924e+00 7.840876675152001951e+01
2.946377180026750153e+01 4.160548978324511893e+01 2.183549474248117761e+01
9.557712669145209361e+01 6.866033294715725788e+01 2.786092727219494591e+01
7.641478925845405001e+01 2.704443048009769157e+01 4.917644104645775371e+01
7.210992879669144884e+01 4.066248607116978775e+01 5.419510813157683060e+01
2.933578988455167647e+01 8.283301114560582334e+01 3.261331020119527579e+01
4.672594644687607968e+01 3.355470714964256729e+01 4.361717218866269974e+01
8.761646962003744932e+01 8.133831552080688709e+01 9.936361696114457231e+01
7.092743197428852397e+01 4.933140724359258655e+01 9.287306137774911008e+01
4.755481569985108337e+01 4.931847458482996416e+01 2.090077151889428819e+01
4.683325773218122379e+01 9.913576329975406054e+01 1.931723467386783355e+01
2.214034043811461316e+01 4.039651292900722268e+01 1.668284208022138415e+01
8.486003982115686028e+01 4.399710034560844463e+01 5.064823728891607857e+01
1.411548053479783071e+01 9.507936858530035806e+01 5.610167964933627616e+01
5.195383878653237986e+01 3.642791606692242823e+01 7.213309832974825042e+01
4.887213613033743798e+01 6.206721433601659754e+01 2.819251989058312446e+01
6.259446515880482309e+01 8.613813824581538370e+01 8.947806209241463193e+01
3.056423214708267011e+01 5.727508989750668889e+01 2.032970406142564457e+01
6.812213826489337976e+01 2.653241890773957579e+01 2.508273503507854230e+01
1.820938389068793573e+00 8.422748442560259718e+01 1.814567363017564006e+01
8.206201021603287415e+01 9.990615670099156631e+00 8.169962238116831088e+01
8.279193294366224620e+01 5.064358975438135957e+01 9.384700400775918183e+01
1.782936899600289138e+01 5.783296745814323714e+01 5.478523862009217993e+01
6.558763376177088844e+01 8.222112993865678732e+01 1.759642894217857645e+01
6.056374554134426091e+01 2.578027316148478931e+01 8.295294269660919895e+01
9.999474418259140407e+01 6.052125007156264758e+01 6.346908335786479682e+01
7.820757480595754885e+01 3.984094784152186719e+01 4.123649777790754456e+01
2.729638723555403246e+01 3.372491518737237470e+01 7.009733610437207219e+00
9.024459747522683983e+00 7.114964951730526366e+01 8.721838351791186028e+01
5.548615170639836691e+01 9.956063499791750360e+01 2.841656525158249380e+01
9.947438628145089012e+01 5.295548453878876671e+01 4.527257014496496623e+01
2.760388970504535777e+01 8.525418956330521603e-01 7.406573499856202147e+01
1.140512007622196400e+00 9.885426299062874023e+01 6.627241314813745987e+01
1.240651671760325492e+01 1.171117973513779997e+00 7.067872607445799815e+01
3.593160781000449333e+01 6.920073416519176135e+01 5.386271764696648745e+01
6.983635873698274565e+01 6.456028943507375573e+01 4.215468579229069235e+01
6.629731874663868929e-01 4.650865409012104124e+01 4.797667319268932573e+01
2.677094775305848273e+01 3.112653419781482711e+01 4.656496968188164942e+01
1.377463777407439416e-01 7.863871962667645654e+00 6.530030024699429170e+00
9.066091770571675568e+01 5.894288814006779376e+01 1.951988660417784871e+01
6.939430974980398048e+01 8.725759816634004906e+00 2.408975370415973316e+01
9.004623883997335554e+01 6.933991864537857452e+01 9.174651438308185902e+01
2.891053511520350483e+01 9.879906657029694372e+01 7.128742479484461825e+00
2.671393844015648256e+01 5.690952762434344692e+01 4.407684140121163807e+01
3.248405332223094177e+01 7.800709394248370643e+01 7.677344925039007251e+01
4.866737061710526291e+01 8.390226885990421124e+01 5.250754541140789655e+00
2.207287986727265405e+01 5.742843469434200543e+00 3.115335505167092833e+01
3.625914338814761884e-01 8.003559995106070346e+01 7.684912886021411538e+00
1.516271450241483087e+01 4.466197129481979289e+01 6.406237624834664857e+00
5.741958435453350518e+01 6.375849470765272287e+01 1.843651271623334509e+01
9.859058144817767300e+01 6.900996434227106135e+01 6.033647594137874393e+01
1.533001118609211844e-01 3.876024923779888098e+01 2.669040587400652953e+01
1.651539898204879009e-01 8.517394709062145353e+01 4.457251164887055239e+01
2.094702511738243444e+01 3.931289836519433578e+01 4.532441789424507306e+01
9.143196080522674407e+00 4.062472140423767364e-01 7.083159911528413843e+00
8.431804052855895293e+01 9.861903577921268038e+01 8.030170249462241827e+01
9.683024356038924907e+01 6.322087255578902898e+01 1.055957042395796464e+01
8.883575774825065707e+01 8.393242796173117526e+00 1.433586228070249291e+01
1.997688414660747647e-01 9.073212578311225229e+01 3.026146674155317839e+01
5.232597106667768116e+01 8.608518573845145738e+01 4.484273063477463950e+01
3.581805980278285340e+00 7.525656852680158693e+01 4.981064134483873573e+01
2.891772118612756515e+01 5.226406698182416477e+01 7.139290126858521823e+00
9.987742800094487450e+01 3.033546452342983457e+01 6.010101547608949346e+01
6.932261034562092306e+00 3.158717326239068868e-01 2.778631271313269835e+01
3.068958384221025426e+01 6.709143220036379773e+01 6.753800348682183596e+01
9.111471601987042845e+01 8.632376427720093659e+01 7.453864309787320508e+01
4.083081046043665907e+01 9.071292337078085666e+01 5.084957331763636290e+01
1.343448268545547286e+01 8.069680388158234052e+01 2.866051373858294937e+01
2.242837461763468454e+01 2.770861864521607743e+01 2.782160120315874252e+01
5.041752249582679468e+01 1.613847050849252085e+01 2.273474380292257280e+01
5.713111937151680308e+01 5.188004791524518566e+01 9.148173596669717256e+01
6.028380993965477330e+01 7.546835196433559645e+01 5.555459781238077710e+01
7.656922540259265020e+01 6.968455951422228623e+01 1.665298469245949420e+01
4.530311784214836734e+01 8.079326903551259420e+01 6.903903035878286687e+01
7.679973335161746206e+01 6.814784649119825133e+01 3.502699138366265430e+01
9.069860152100852702e+01 1.557148563042867195e+01 6.586446223884429685e+01
3.103711452433343254e+01 6.789201296414600506e+01 2.990824273422131441e+01
9.320724995366994392e+01 5.368089791855163639e+01 6.746840391659955571e+01
8.030146202980436243e+00 2.141202849744742309e+01 1.692264240549840082e+01
7.723288981089356753e+01 3.900161658973729573e+01 8.544851521013086426e+00
3.893787728330973152e+01 4.249033907856470904e+01 2.419681536970502833e+01
9.217969760382925415e+01 8.895758927367751312e+01 1.603171057455177362e+01
6.740159740487766271e+01 4.452484585690310581e+01 7.945566268133985943e+01
1.928491286548417172e+00 9.061201001898078644e+00 6.434314782956964507e+01
6.231005854344208217e+01 2.071786160661341825e+01 7.416108494575857435e+01
7.984131674718250338e+01 2.961029287866685422e+01 5.867785667020809370e+01
5.595190258474718092e+01 4.304045644046002650e+01 3.360418838379717243e+01
6.191783108562982818e+01 9.116249944569787544e+00 3.469273029364886440e+01
9.083856195445810044e+01 9.042481386374485908e+01 4.761740196093173694e+01
1.422690631592324806e+01 6.547205529373518118e+01 2.688498906949027401e+01
5.416819476820516854e+01 9.940499373759638502e+01 7.384953744555757282e+01
9.377997825173005708e+01 3.830240831084881137e+01 9.381171299058976842e+01
5.363251202416454788e+01 9.371111455672706825e+01 8.345613942538163599e+01
1.095721679538852467e+00 1.465628603835056332e+00 8.771269739735762982e+01
8.407280747407216381e+01 5.022023716489321288e+01 7.717863788525598068e+01
6.102209416941004605e+01 5.449945015889093725e+01 4.753573333529609357e+01
4.933727851799196884e+01 2.031326043176527918e+01 1.133036074664978088e+01
8.639733615227418895e+00 8.613196416700441205e+01 7.585139168075104976e+01
5.141213176597443635e+01 3.985189534777535414e+01 1.206240198127343000e+01
5.070168876747464992e+01 7.530204524594019233e+01 7.992156210392047910e+01
1.670034689232052827e+01 3.459537568415722575e+01 8.594064857626604237e+01
5.317038194190337741e+00 4.478284239695064173e+01 7.019909761022549333e+01
2.177027238530432385e+01 7.221254454526449251e+01 1.952185048493141295e+01
6.350971740400637344e+01 1.056980188101427309e+01 8.841822258658064015e+01
5.477551275751730486e+01 5.250001287353633472e+00 7.656348687863967939e+01
2.427704825495410290e+01 5.914672710182129833e+01 9.091160145909876178e+01
7.627708803089480227e+01 5.576749329045939874e+01 6.610847084075339808e+01
6.631045395524391495e+01 6.889019925686218926e+01 2.615592150907135505e+01
8.987445514153559145e+01 3.320582450725441959e+01 7.321365627453782565e+01
9.371312485661253788e+01 6.623461639479971552e+01 7.862053854446456569e+01
4.018699057168759481e+01 8.593669713112063846e+01 1.913873277743864776e+01
3.851223879140462003e+01 4.011147611498449805e+01 9.303705212795577495e+00
3.293602634361636206e+01 6.021554416452135072e-01 4.530212783039597468e+01
7.847235439380420985e+01 9.152869597928513201e+01 7.223013989726592854e+01
2.567148791136759556e+01 8.402331989388774502e+01 4.710498224455764671e+01
6.239854736275751712e-01 5.583807242809477600e+01 4.244861208342462788e+01
5.696681952398274795e+00 4.271998893647047879e+01 2.130375132204217437e+01
5.163975759681265032e+01 1.757670289993910018e+01 1.519702748581819307e+00
5.047223898949020082e+01 8.572537410442492956e+01 8.478268822024544704e+01
7.017015393401240431e+01 4.078456898459729274e+01 3.511689183821460603e+01
8.476222602464625311e+01 2.659808881517542289e+01 9.844663982390872548e+01
7.921436439848172917e+00 3.128223934140329376e+01 1.406925246639416649e+01
3.084757413662952885e+01 8.004927729120160507e+01 5.735018033462246478e+00
5.454633973632056154e+01 8.077045274638015826e+01 3.070898822616947399e+01
3.774746334444255780e+01 8.304472535518422660e+01 4.790276524914903433e+01
4.064798391554235835e+00 3.004420081622043526e+01 8.948088123622444812e+01
7.471849279891733886e+01 7.151169624880820663e+01 8.829707891859772673e-01
6.913325811974728197e+01 7.165597857138082816e+01 6.008209517944364819e+01
9.496116636903715857e+01 1.738019646986525046e+01 3.626970091175792987e+01
6.210953300786547615e+00 6.959329147574295860e+01 4.353807761684990396e+01
6.798158408534716557e+01 8.245565654171844017e+01 8.322884046227171950e+01
3.098136670164466366e+01 7.870651696216668824e+00 5.981650769409752399e+01
5.554868998004005221e+01 5.480316941098428885e+01 2.021042560899648421e+01
1.997999624134494390e-01 2.147711143768179554e+01 6.364427282441401701e+01
5.118077957200959105e+01 5.367539168318420195e+01 9.958480413156212308e+01
4.130195229421721592e+01 6.052232386486416971e+01 4.267752691772264484e+01
1.129641995866808024e+01 7.129438637797058220e+00 8.621555244807957763e+01
3.728403310891093003e+00 1.626491994661786222e+01 7.987715582258059044e+01
8.096720462704459464e+01 5.986875938530624808e+01 4.311058783671494865e+00
9.045583842435421218e+01 4.181340340355134089e+01 8.553150658386465821e-01
1.111753488275514279e+01 5.127636607802655533e+01 9.219637851546845297e+01
9.772598136409574465e+01 9.048539091625289643e+01 2.901003968897788354e+01
1.444967594564672275e+00 1.801154813306499136e+01 4.901444580392227124e+01
4.172824065283599992e+01 1.803438805152810431e+01 7.471076278134364657e+01
4.626898481835408461e+01 4.182244511991968494e+01 6.449921365085702973e+01
9.888050951838665981e+01 9.712251210783274757e+01 8.917619488676015749e+01
1.659232266499169839e+01 5.707531305484501161e+01 7.700901057554320062e+01
9.902500609206613547e+01 8.692422272478239620e+01 3.435443941246507649e-02
5.673581395959381979e+01 3.687087527301444823e+01 4.312870601400157966e+01
4.515646429653170912e+01 7.101691022536694220e+01 5.630139443001157673e+01
8.088962550922128969e+01 7.484578789760499262e+01 4.864968327574169393e+01
6.871091953767690086e+01 7.968383677370688645e+01 3.358383146890644610e+01
9.040889731966949228e+00 3.289962364153772256e+01 4.337540572917287562e+01
6.796082654558544434e+00 9.959619837794022601e+01 3.628107216546702318e+01
2.596135084935370330e+01 7.974652731966853025e+01 9.548839018974642556e+01
2.331321634349237115e-01 5.799996764066642641e+01 1.524031073737660513e+01
1.571246807976145377e+01 2.064424147778196783e+01 9.068107492787679291e+01
1.871762114502955043e+01 4.537250822362116764e+01 7.000273114697257881e+01
7.519246497568526877e+01 8.241719764154757399e+01 9.260784413537092519e+01
7.774321259728490929e+01 8.693496401576483734e+00 9.000662954700298712e+01
3.853023984595005658e+01 1.331534262272889890e+01 8.934607893717101490e+01
9.942205263686444994e+01 8.081086535341032118e+01 3.721387571167961283e+01
3.889059153408391722e+01 8.573274295089731822e+01 9.367993807713594379e+01
4.005044945363916042e+01 6.926119350996873436e+01 1.523155263443886120e+01
6.324215272969737356e+01 7.465563009049428445e+01 8.940186395984273560e+00
7.207099080261770041e+01 2.218186736229854628e+00 1.144087008068544975e+01
8.763777295566551118e+01 2.301246346619839755e+01 7.544918188682872540e+01
6.778922937419962125e+01 9.051489783075416540e+01 6.609116658446056647e+01
4.597147525480453112e+01 9.843788632248467252e+01 4.807302724446672926e+01
7.399276167563431272e+01 5.849772290118659868e+01 8.866808399384702000e+01
8.335398712751033656e+01 3.889215989294013553e+01 9.940314599986224664e+01
6.873246066653425146e+01 6.440542022984257642e+01 7.523922797609039037e+01
9.210971669119406613e+01 3.899812136921243422e+01 4.857446352879908602e+01
6.180658205697129404e+01 7.810235603208370847e-01 4.829784643036016689e+01
9.952732322506781770e+01 4.737860929502954832e+01 8.028952863157682884e+01
8.976089372418940115e+01 7.639284072145068194e+01 5.184483581263199881e+01
3.455613687468422057e+01 5.093288595661271678e-01 5.758810727090808257e+01
9.102298041109897042e+01 3.651515569535293793e+01 1.956721182993159758e+01
7.555166302077596185e+01 8.685982388282330646e+01 5.233861146354522731e+01
9.093746166959087418e+01 5.130266325793905935e+01 9.159925385923408214e+01
8.446437811858274358e+01 6.392037118801044926e+01 5.566781135674776237e+01
5.991021220085720245e+01 8.985355133183142584e+01 3.100824585383009691e+01
3.223804436288325803e+01 1.237810803195971143e+00 9.387441397240003482e+01
6.156391263930112245e+01 8.957978189630766508e+01 5.692923076911712599e+01
1.023838213829353450e+01 4.229003591572868714e+01 5.697621278081014395e+01
9.340413761702416195e+01 2.716838693113828995e+01 1.716286461809967179e+01
6.198807492991817725e+01 5.769262908505817933e+01 6.494991848715419280e+01
5.880913058290948570e+00 7.298554077053948674e+01 5.298801008525422240e-01
8.166355851851065495e+01 8.106199599355664986e+01 8.582550356454943241e+00
9.991411838737585072e+01 6.331265599327623761e+01 4.345954296035261422e+01
2.368643993635498646e+01 3.123812988212856112e+01 5.764631796974991573e+01
2.881588437169426697e+01 9.881261717137928713e+01 2.120827808859842989e+01
9.966892641905099026e+01 8.949866628761964193e+01 3.757683136186530248e+01
8.179776273472334935e+01 1.684858925210041036e+01 8.661299033696667493e+01
2.816169281399263369e+01 2.059517373460482048e+01 2.596940031592486164e+01
9.193657847774611014e+01 9.997175247381748875e+01 6.437287050110807485e+00
8.702316170702633258e+01 7.574265131090274217e-01 1.350375238475964856e+00
1.632097893394385224e+01 7.720152039820938228e+01 7.621554273307729055e+00
3.226431372534946718e+01 3.867061663983092501e+01 3.997503246416641787e+01
5.355145751216689831e+01 5.449195374142632176e+01 5.532864165152862057e-01
8.198976449809775602e+01 5.999046102455489660e+01 2.381889690985308050e+01
1.626561624095127456e+01 3.410604584842258191e+01 3.179167814208324572e+01
2.985016210771991396e+01 8.154376823013709696e+00 7.876868575442090048e+01
7.450143882607758883e+01 5.497895370112895108e+01 3.885366199659186748e+01
1.071292153031205885e+01 9.108369841133146849e+00 1.812307105762657145e+01
2.407595365531026843e+01 2.582991945329940009e+01 7.436877278535143887e+01
3.727650292252266695e+01 4.984107107743840004e+01 8.582556782442296139e+00
7.062809072023357615e+00 1.448127967803506344e+01 3.517093814360361392e+01
1.858077329244681763e+01 8.591671423084368264e-01 8.939845791505011618e+01
9.201587008867147688e+01 8.508332356878112179e+00 7.260271235476184870e+01
2.672158793099232987e-01 9.253311179887406013e+01 7.292610921622858200e+01
2.964517912279121958e+01 6.796601680708560878e+01 7.917627239737612399e+00
8.139416886520174899e+01 6.852126070902527033e+01 9.295457271287510537e+00
6.949468902990838615e+01 7.810098574345681754e+01 7.162570047093966252e+01
9.980549647165321403e+01 6.910298295163563864e+00 9.172410967575245877e+01
7.370214953340664010e+01 4.368673441492516929e+01 6.578674737033215081e+01
1.645709006567198784e+01 5.885465749606660069e+01 4.102848498570077140e+01
5.117711648632616850e+00 5.456293503805166267e+01 2.401686361659338687e+01
6.337360634268063109e+01 3.532782457439984825e+01 5.549338361316558377e+01
9.141244670908527326e+01 9.116631225690086637e+01 6.835714557623450816e+00
3.615352826367210781e+01 9.987470715636820273e+01 3.879689968580023418e+01
7.355847459442517788e+01 3.037642385239471920e+01 9.728861605096224707e+01
6.427823498150750936e+01 2.946138054157160369e+01 9.143639832681028423e+00
6.459090320828761378e+01 9.013379446467762790e+00 7.293064340999671913e+01
6.206417613560931557e+01 8.989867565031326535e+01 7.735458597287315285e+01
2.174671372129301972e+01 9.018050228297526871e+01 1.888295391295555703e+01
2.022697284207678337e+01 8.191952139120395771e+01 6.461925338160186527e+01
3.580410583275631353e+01 4.906645924478281273e+01 9.923606371731301579e+01
2.972636803547219486e+01 4.005334875586146381e+01 5.538050987633509692e+01
3.685613475175048137e+01 3.683560470901118578e+01 4.982940266062521317e+01
2.344536046194777157e+01 9.911341427123258541e+01 3.491355432901944766e+01
1.168142786368519026e+01 6.460336146599135532e+01 5.129868106913759718e+00
9.873472631855516823e+00 6.488558628107647053e+01 9.848520127347720177e+01
6.616417344093372321e+01 9.989539235622626734e+01 8.928811949327253217e+01
8.890489849727822502e+01 7.643545568533809842e+01 2.345953239075293517e+00
4.023475196271805032e+01 7.756114477905281035e+01 9.929619038646997353e+01
4.675406126240572036e+01 6.048060340207654662e+01 9.635330133539731889e+00
8.728061346535598375e+01 5.539072208126608388e+01 3.675709727802528448e+01
4.316334364110858957e+01 1.945419934044164734e+01 1.919670405011629910e+01
9.355558979718269086e+01 9.824002328778153981e+01 5.560149142961020630e+01
7.563394331643669588e+00 7.023152131348398441e+00 4.197598585706487739e+01
4.530237329871552276e+01 8.726749510508344088e+01 3.660260582416869113e+01
1.651526722954980286e+01 3.675661357874557922e+01 5.787479254354555280e+01
5.562865914796753941e+01 1.054487816858640237e+01 1.950417346154937803e+01
7.775346038607172261e+01 4.956027142801588958e+00 4.300863209198347903e+01
9.759532378105210171e+01 9.092726600818230054e+01 9.919735838854487042e+01
2.739510655210587586e+01 5.811292740514295119e+00 2.104907134272636782e+01
6.690501155060757377e-01 4.387164578673037596e+01 5.583438933824006511e+01
4.021114787494249754e+01 2.743319599756101113e+01 2.233748095110411569e+01
4.731556471689023624e+01 4.107593498091443962e+01 9.071660580577379562e+01
5.642300234191073116e+01 6.777307090704177028e+01 3.622727218528243309e+00
5.238964345993986882e+01 2.269622104836048848e+01 5.144390917671120178e+01
8.262017347547447343e+01 9.980106228552421044e+01 3.909587892280814714e+01
3.570583897383141903e+01 1.877103409538450762e+01 9.498097187982152434e+01
2.485945702994465378e+01 5.135962100825920373e+01 7.101884143750125133e+01
6.019417888525547511e+01 7.620413388815650535e+01 2.099850881969400618e-01
5.898159597127807530e+01 6.420848597637551336e+00 9.394748091686489033e+01
6.678895080500683434e+01 1.448280038454975482e+01 9.916305574455100214e+01
3.630315875213929733e+00 7.697264342503147816e+01 2.646758311675876385e+01
6.393342444808883585e+01 9.983405083643997102e+01 1.469984273707616396e+01
6.342642415299234671e+01 4.208415295630346975e+01 9.385709351644426590e+01
8.151471690363231914e+01 3.554824623976511333e+01 7.017045682109682048e+01
7.336302251204562808e+00 3.148169398176207068e+01 2.007712879604883760e-01
9.973814068440056246e+01 9.210863431366831833e+01 5.484179542396986307e+01
3.579446175837026800e+01 6.381301269581866364e+01 3.569739823154642977e+01
7.130697772683586777e+01 9.362568764658509224e+01 9.776539541209558593e+01
7.142119315356875831e+00 6.303264197203399988e+01 5.265477178690086646e+01
5.156894193655766401e+01 4.531761677896631113e+01 6.974745774130366271e+01
9.773287373393105781e+01 4.378707352785594509e+01 8.889610906144159230e+01
8.886270058074664746e+01 8.947896558512553611e+01 9.929132641889466981e+01
7.965685687823061301e+01 9.052466572171791626e+00 7.272802266770555946e+01
5.502572149787025069e+01 9.126916783664762889e+00 4.790191471009759283e+01
1.908474720185483520e+01 1.447258654853833448e+01 4.453093781466993306e+01
2.075853062062561349e+01 4.956569361535888874e+01 7.868884911776056867e+01
6.812936338460666263e+01 3.096911254721119633e+01 1.734061594286217911e+01
8.173015685516260120e+00 8.827821351508220005e+01 5.687143777159668900e+01
1.076019703344385192e+01 8.848190673392159056e+01 9.691350590609405913e+01
4.513523911136364575e+01 6.972429792683911387e+01 2.165765980013429726e+01
6.769761575820099075e-01 4.493635213005098272e+00 7.715479649803145890e+01
2.692114872056454544e+01 9.999839912287600896e+01 9.044706279467568777e+01
2.445013030199116955e+01 9.091868288853622460e+01 3.300215767948500023e+00
3.071914874111780769e+00 6.615228046073225698e+01 6.006125832576790913e+01
7.137116865415393363e+01 5.295222238406037718e+01 8.301511182470787276e+01
7.672690123886111735e+01 6.373917886503842567e+01 7.047029617163170201e+01
5.725818416036809744e+00 2.263291326517072832e+01 3.121441843946000105e+01
4.342238874186161723e+01 8.034937464127789752e+00 9.868161313789352107e+01
4.124214333236809082e+00 5.968242050911148766e+01 8.913241261057899578e+01
5.210071041259551095e+01 6.779214423908112508e+01 3.433860980996187351e+01
5.274375088504326925e+01 9.539410533896841571e-01 3.361785849017563521e+01
4.246189780344494835e+01 4.571820624915093845e+01 5.839169600335218036e+01
8.199962498312072512e+01 3.931283463912232889e+01 2.324481001864954166e+01
9.262108459446149311e+01 3.549961285589744620e+01 3.175706600793916223e+01
1.929191331930226738e+01 3.654486040303711292e+01 4.683498735365676069e+00
3.698195423061883957e+01 1.090586895631623321e+01 3.357443313687748798e+01
6.757530286650134599e+01 4.527309128916634506e-01 5.467444648202987878e+01
3.755449077564191640e+01 3.054249317230427607e+01 8.408148547557414076e+01
5.190923034391731505e+01 7.469352723959316620e+01 9.793169415284670265e+01
5.354637169541209829e-02 5.603166120950604778e+01 8.123012727273231803e+01
6.780823666372482350e+00 7.237107196305410639e+01 6.631324211753593545e+01
1.134421706788678641e+01 5.037379112694980421e+01 1.238279148776716454e+01
3.910703758274435415e+01 7.667952436592879906e+01 8.895284307056661177e+00
8.497367260754515428e+01 8.847326387435265360e+01 8.943603207155300083e+01
4.280675377940552551e+01 7.190034291483650009e+01 8.862587614401351743e+01
2.815339398573337704e+01 7.066815333148524303e+01 5.808980971379462943e+01
9.279034295024546353e+00 9.978040074171558160e+01 6.875725890117746530e+01
5.926009795743605224e+01 7.279655182488949094e+01 3.020863372090109067e+01
4.409284775645598842e+01 3.777660447486919093e+00 1.108576208390854578e+00
3.870919715772498648e+01 8.262808999988287439e+01 6.462742377260882165e+01
3.386660677973865319e+01 9.291817929111861929e+01 8.243633958381521154e+01
7.128330814281036965e+01 5.072894685853992769e+01 5.233815386274521586e+01
2.699406832231571229e+01 4.616374823303375052e+01 2.926828584307302705e+01
9.024560524504599357e+01 6.953673208478683421e+01 5.670856303361419748e+01
5.645389771836672566e+00 4.226046475941611646e+01 1.677256034773311200e-01
5.894408747146494676e+01 6.279890007696254628e+01 8.892691711121474896e+01
1.975330077678122365e+01 9.260994478035556199e+01 6.929103753409923172e+01
8.824378986650063439e+01 1.686349189111431457e+01 1.012409282129600463e+00
6.012809334951136009e+01 9.989910124778344880e+01 6.395714844886588679e+01
5.117946957624781845e+01 5.168514912169762709e+01 3.722882627355878782e+01
4.079204899898874004e+01 2.994983144521150464e+01 4.819370965945373086e+01
8.235826592500681897e+01 4.416358001827171620e+01 2.985788684240163704e+01
8.478447113206344810e+00 1.981189109146568228e+01 5.930511696896790141e+00
5.296942549099748376e+00 6.830650194093311711e+01 2.101836555396924311e+01
7.835064684411891278e+01 7.542342889287024121e+00 3.270695718912590877e+01
9.159552050209873642e+01 1.658614195274132896e-01 6.198346627487087801e+01
1.538672682606605591e+01 4.026065705942675521e+01 2.185597547507763849e+01
4.021323436145895869e+01 9.265606515528223497e+01 6.247379822193233068e+00
2.829857442527114841e+01 2.130461268857705193e+01 6.787841493062320808e+01
5.268042218095975215e+01 1.946013253137793697e+01 9.643823025937857096e+01
7.808356426237148185e+01 1.561230297869298234e+01 6.331235175835946194e+01
2.812666335035782694e+01 3.328981030543148734e+01 2.953931224952126655e+01
8.779193897881101805e+01 9.603699638142060735e+01 2.453237835505016662e+01
3.881149250642408077e+01 1.423342023902359799e+01 6.515040861123591753e+01
2.165276859084021055e+01 5.726616430923170498e+01 6.221764762155987682e+01
8.494281373511725519e+01 2.193873643019372821e-02 9.118099493117914278e+01
3.682718803806319841e+01 5.364546409016078599e+01 7.172626297775798321e+01
8.638280540698164600e+01 6.060232931014980551e+01 4.767473039093316345e+01
1.881812355236871426e+01 8.817727542550079534e+01 2.700418340185163402e+01
4.845768523541745765e+01 8.573433656287538440e+01 2.039378535541308679e+01
7.477598148173187553e+01 8.554607224728948722e+01 7.986057526312883681e+01
6.583717535028254986e+01 3.168467427621294163e+01 3.082679361326074030e+01
4.560515246198350070e+01 9.187238503283198554e+01 2.501613672260574361e+01
6.805287002651868988e+01 9.351302089495774794e+01 4.167762858679617466e+01
2.387643069608316182e+01 7.922969713032063055e+01 7.750627682735093060e+01
4.236953408991622894e+01 1.853910940593392809e+01 5.556795816143451816e+01
6.724443316342809673e-01 5.919665271329157719e+01 6.986468466597495208e+00
7.802526938338280615e+01 9.269307809386228314e+01 9.241877940751987808e+01
9.783307538978325724e+00 8.490151482472221289e+01 1.728196291126554840e+01
8.574310579688344092e+01 8.204256667375649670e+01 3.045596752439758603e+01
7.658001463723269353e+01 7.624501703979258593e+01 7.644068523454735953e+01
7.805060297752534382e+01 3.930201238310908707e+01 8.717140060251132638e+01
9.821246888539418762e+01 5.632020986234448401e+01 2.669802040215305539e+01
2.705082550773507677e-01 7.130117589340491691e+01 7.544284383290609242e+01
7.430058950172080401e+00 5.346103381862173620e+01 6.734612830127051097e+01
2.564068085063719948e+01 6.484452610754287605e+01 1.646289318341799301e+01
9.887882752506170903e+01 6.329699433943670783e+01 9.212731307512058265e+01
2.753658129789452502e+01 5.288783112480449944e+01 8.426028012806662559e+01
8.344975874690886997e+01 5.536452960595764949e+01 6.159864498830958013e+01
3.899498843105795487e+01 9.786135303871496660e+01 7.876128770726108996e+01
4.427175181155125472e+01 9.981440035739743166e+01 3.658840736381610981e+01
9.997536235317922149e+01 1.906387170461212222e+01 5.228742219865614516e+01
2.427695923376894527e+01 4.313801125524682334e+01 9.812492131059214273e+01
3.721535178070368488e+01 3.012012581711399761e+01 6.290795614078083986e+01
4.355645769435034786e-01 8.034778444484913962e+00 3.468934038883468673e+01
9.493743419806625639e+01 6.636638924751662216e+01 4.942672383467436958e+01
4.022872038915244275e+01 3.713365430916044829e+01 8.036528839565380622e+01
2.770911100427936447e+01 9.054290874143103451e+01 7.072925975903163476e+01
1.352732682564076150e+01 3.847553961683214396e+01 4.889583570375338439e+01
9.934399968364100175e+01 2.482895862439128365e+01 7.522281853250230199e+01
2.633162367818245997e+01 3.088966036218897671e+01 9.218662747726278894e+01
3.306972910044686387e+01 8.960733516894219974e+01 1.748637662010970217e+01
2.151521031073029278e+01 5.111876324448790854e+01 2.706037384235604470e+00
4.538769103127027194e+00 4.203949561076923658e+01 3.469264721530966966e+01
6.500958860637202008e+01 9.677557997682162849e+00 8.453378372786046313e+00
3.175893041449513277e+01 1.682585082957919198e+01 6.135464333871180287e+01
6.581557062637418198e+01 5.634244285914736849e+01 9.895188192095704949e+01
6.333199976728997882e+01 7.046553564192554120e+01 7.116123669680087005e+01
7.379359270014662187e+00 1.435171405127346844e+01 8.939213185239646009e+01
9.956184674939423473e+01 3.329086283818500647e+01 3.858731431412937241e+01
5.574960811405080818e+01 1.565426948931824036e+01 7.488801651544424942e+01
9.112262095451703203e+01 5.080622423835842483e+01 1.449510675139401528e+01
7.398129371693474354e+01 1.637476963037840605e+01 9.246546751095230832e+01
4.281244198004823431e+01 1.512370475677330361e+01 7.981090145519676327e+00
9.371781699704379776e+01 9.186186331007071715e+01 6.787323006564197669e+01
7.749740423732596639e+01 3.142284833427056867e+01 7.683849146448361012e+01
5.330986608531378579e+01 9.506694254440406056e+00 6.499564614657955985e+01
2.429981019156634048e+01 9.276757010240422119e+01 5.339072839359913303e+01
1.586614360797226020e+01 5.973749951459760155e+01 4.713495958978075606e-01
7.537753892034140790e+01 1.679947013001889999e+01 7.123637560546591807e+00
5.599012263563455605e+01 7.356178377030332172e+01 2.258865015126010434e+01
5.002147301496765408e+01 5.572226433731660933e+01 6.574107895617332531e+01
1.742793479150116553e+01 2.668023294263959144e+01 8.068263001858481687e+01
6.135036069210584486e+01 2.055959460226560864e+01 4.676362626944239054e+01
2.418230388731923419e+00 9.331920170964654915e+01 2.236531077339888185e+01
1.811369747780598871e+01 9.050849185651934192e+01 7.987772196935418378e+01
7.184633342458141669e+01 9.277569039516909299e+01 2.230798866242240663e+01
5.886250511501193472e+01 6.037506754896268291e+01 5.363495507404580565e+01
3.278332665602942342e+01 5.622308650064737634e+01 9.566579778219518460e+01
9.048652804341612921e+01 7.819659341907943428e+01 3.557078297785017895e+01
6.762212199252974187e+01 8.715416354667463850e+01 3.310449632000056486e+00
7.940513263186110393e+00 7.416547481773405615e+00 7.450538316003485306e+01
5.863803797926325956e+01 5.237648861655258514e+01 3.298907164460101882e+01
5.384945694541036687e+01 3.660309952046676329e+01 1.898816374821926800e+01
6.487783927738193768e+01 2.592199350958378545e+01 2.105109621034262357e+00
8.877275447084286952e+01 4.744382423974401775e+01 7.049663320046101944e+01
4.632598010829715918e+01 8.962198133921135934e+01 9.155943007190441563e+01
4.518997491278455669e+01 9.570013581556075621e+01 6.010607382226167772e+01
4.493925059605197170e+00 9.232345213367420911e+01 7.958610024893397394e+01
9.740473320048670303e+01 2.574545146191967859e+01 4.547089825503055494e+01
7.623557306466662453e+01 8.331213716998340146e+01 4.399921542665418883e+01
8.284109540984232467e+01 3.130976988877674927e+01 8.492131858376254172e+01
1.897313305057467403e+01 9.887708489136566925e+01 9.157173762248139326e+01
3.895450326343894432e+01 1.813351140469499256e+01 4.577363585354405728e+01
7.065565863222504106e+01 9.692805384749100028e+01 7.084479753308607997e+01
8.201697847097597105e+01 7.688724518548656306e+01 6.887985756053774367e+01
8.758792719258834403e-01 9.156733501647147477e+01 5.079555223417941079e+01
2.684165023188449339e+01 2.724372165982965655e+01 2.003760627204451694e+01
9.462368943541166288e+01 1.162918031571157407e+01 4.840417150283244041e+01
7.238505929825447538e+01 2.536218513091726834e+01 4.185305477200166280e+01
5.432293343842181343e+01 4.886174690762246087e-01 8.280525658970439906e+01
9.875988691551188481e+01 8.747822605063721824e+01 8.677861515165363926e+01
1.807800304966675853e+01 1.159983448332326716e+01 2.060160707395542090e+01
6.236346747415947078e+01 9.275430717005072268e+01 7.383692248488515908e+00
6.169652174633809238e+01 2.675745853253123130e+01 1.896683940840076943e+01
9.902453060436510413e+00 2.213367657403063760e+01 5.453794353936159922e+01
5.411769871208895921e+01 7.821933471167038476e+01 4.445073570310773903e+01
3.907184064205666374e+01 8.035628319635974037e+01 8.471676916394703483e+01
6.861056293168651621e+01 1.964405469200151089e+01 6.598279805305688228e+01
5.061350112619518171e+01 2.857423977942749005e+01 8.011281826805398509e+01
6.629107739604179983e+01 4.390424291089938436e+01 6.865209627677715787e+01
5.332687530187696723e+01 4.564431449358157522e+01 2.620818248451383070e+01
5.258999224686421314e+01 9.884386824001744287e+00 2.925516994016552630e-01
9.787425586929111887e+01 1.323792436901951675e+01 8.163628450097482059e+00
9.054249045247649974e+01 3.655675353264776817e+01 8.200442932160592591e+01
9.936258665206644025e+01 1.148252765415869092e+01 1.887136241433141493e+01
4.548588221336885340e+01 5.618658486985879108e+01 2.427153120562512001e+01
2.245559939876042677e+01 2.182714081226853153e+01 1.856624286253216738e+00
7.013848825337254311e+01 1.409270838466184550e+01 1.259587618638873252e+01
3.807423375733005599e+01 5.921103691487233078e+01 2.959309143510654394e+01
2.588854484676937773e+01 1.768101391974360581e+01 5.415442650242966494e+01
9.264885581143516902e+01 4.457247217885663559e+01 5.452709219054167278e+01
7.646555001284556852e+01 9.945378015089835344e+01 5.708536409611903650e+01
8.015500813885212494e+01 6.610490890585802504e+01 9.215773843577179036e+01
6.383735097311556217e+01 1.810690639430278992e+01 1.968433784455684332e+01
8.503946422069974531e+00 7.708785787884355045e+01 4.316218686698778129e+01
1.982836715379620074e+01 6.584550225599834050e+01 9.218721889128505609e+01
3.261136303308433071e+01 4.372337224822123858e+01 8.344204029818222068e+01
8.016343101770769408e+01 2.440922601338601083e+01 3.504668882769328775e+01
1.228803889340501776e+00 2.050888861181811151e+01 2.067020687034932891e+01
1.617809346511804947e+01 9.927288421468188062e+01 2.033342737733436678e+01
3.003102357292787161e+01 3.512370642952716793e+01 6.362951821880030678e+01
2.082280962158759152e+01 5.087394995074436821e+01 4.722302693487642955e+01
5.557261010147785285e+00 4.512584951649137821e+01 9.219143698261346742e+01
4.155076679857960897e+01 6.616185534500995402e+01 8.031307037851203745e+01
2.497145250448564724e+01 8.279778500332977842e+01 1.783794243357411702e+01
7.239825559613555228e-01 3.262423114464132823e+01 1.066320268063861754e+01
8.060679539574304897e+01 5.858268953885601604e+01 1.528174762511224039e+01
8.419199703824418179e+01 8.306634456370187536e+01 8.327174591735763443e+01
9.046195363939146361e+00 8.084110107115249377e+01 6.410278131388930944e+01
6.328487644758508424e+01 6.357258506979860613e+01 4.703830084648512866e+01
4.568995331145639938e+01 8.930171056179958100e+00 5.357151910366100367e+01
1.563265196279782820e+01 2.401054482332476425e+01 2.879183508914483625e+01
1.841842202264198924e+00 3.586779485393436318e+01 9.670526496835927333e+01
3.303521410919887558e+01 8.254620230547780579e+01 2.204432149018990117e+01
5.612190203226642637e+01 6.675309919976039907e+01 8.243026114228013057e+01
5.006503642848161206e+01 2.449525206312344139e+01 6.090233556808804138e+01
3.984390428831778053e+01 3.153694493506179342e+01 7.378616801898061794e+01
1.210990548141186451e+01 9.176019819102494068e+01 4.018297275565768700e+01
3.109244473109632523e+01 8.697377393063355555e+00 6.855007274741670642e+01
9.929948653017977733e+01 4.743429296084092783e+01 2.745900722991659748e+01
