1.048611943117192524e+01 5.605483606963817778e+01 3.690540498644606515e+01
8.803195973599919455e+01 3.358418828552509439e+01 3.882496486808041425e+01
9.151553862508110626e+01 4.111775281403184579e+01 1.155193323471687172e+01
9.201688446637915320e+01 2.202877504720713731e+01 6.526909463728216565e+01
8.248034458075748887e+01 5.260116018526429826e+01 4.039875592549486782e+01
8.838435822911424111e+01 1.639497070781418131e+01 7.622819728628206803e+01
2.101644079103362017e+01 5.178843047692070911e+01 8.272890475025957358e+01
9.698428495971005248e+01 5.011638827662054751e+01 5.362457607155468509e+01
4.897267572007785219e+01 1.427686676607697791e+01 2.081477392804139726e+01
7.854989138919104619e+01 9.115883152453656635e+01 4.159469571431878876e+01
7.623228051771368996e+01 8.337742148776805529e-01 6.178257038248277411e+01
9.506599291814968922e+01 5.319577551762544232e+01 6.043492076965873139e+01
9.635994960612809734e+01 6.518900058417131049e+01 5.942209026252280779e+01
8.517947203193574524e+01 7.044151158412830682e+01 8.881847608959600393e+01
2.149763490162408530e+01 9.932598487741874749e+01 5.168814090110011250e+01
4.740752978769280368e+00 7.840355426036876452e+01 9.299341404410131418e+01
3.815339889431152898e+01 9.319683632756604652e+01 9.721362548861594632e+01
9.846729135670172184e+01 3.912999737567874803e+01 8.299000541227098893e+01
4.531837096802774312e+01 3.826850937626120697e+01 3.309339669624986868e+01
2.448288942580128946e+01 9.954886460941207815e+01 1.772542285846645527e+01
3.086151166576345162e+01 2.631458247799680805e+01 8.393876188965779761e+01
9.243050318505385121e+01 7.259606402214443222e+01 7.054374513312211548e+01
1.570534868455156818e+01 2.770234456819055069e+01 3.495292197237017717e+01
9.587036429456513531e+01 5.820859860938580965e+01 8.382166277628557793e+01
9.345918301554047503e+01 6.813581503631027658e+01 3.649105802927218178e+01
7.224865164632312542e+01 7.270100173373441521e+01 7.087363122622343781e+01
9.851014117151028415e+01 3.940635085973423202e+01 2.293305551855776514e+01
2.124026295178841295e+01 1.590354517092702480e+01 8.858099954724623615e+01
5.952729754941875484e+01 3.388727316974772208e+01 6.429204947445616369e+01
2.043010159701583817e+01 4.190710397873242954e+01 9.887421481234052578e+01
1.052184979382818675e+01 6.017998083478141780e+01 9.473925114372390510e+01
4.109564103846214778e+01 3.737555601164471852e+01 5.276247510795195694e+01
1.385327193131517021e+01 3.822410743123039190e+00 8.870972937569922578e+01
8.432095984156569557e+01 5.575437501219803238e+01 8.977534557134751481e+01
5.749419101403989885e+01 2.889822981494015863e+01 7.628956500380978945e-01
4.080661430535131018e+01 2.187148775058612671e+01 9.186095803117618175e+01
4.821607381246862190e+01 5.095534301626402751e+00 3.275500662938388530e+01
2.215355337987745532e+00 8.791796286788941472e+01 8.269439554771990686e+01
8.799833596322761764e+01 2.377486172379316187e+01 5.715239784932675349e+01
2.822822303657865817e+01 9.296157901607337237e+00 5.109003286638413854e+00
9.754085580152668911e+01 8.492508410682302156e+01 9.448805551217961352e+01
6.655885838032062907e+01 3.279099363987043603e+01 3.084032722703826579e+01
9.052348107380106512e+01 5.797168525135040085e+01 8.794419258724725807e+01
3.074872275812731104e+01 8.810935168862761202e+01 3.772039699176573890e+01
6.006494587809245900e+01 1.526930556743374368e+01 8.192047362328189308e+01
7.591548801355929577e-01 6.720903266518212149e+01 9.343106540610565958e+01
2.880392980520132085e+01 6.947221990056611673e+01 8.920917430395063263e+01
2.645955955356861367e+01 6.024203882802237331e+01 5.423960397658939314e+01
8.180375261811153109e+01 3.791722240370691566e+01 5.010230366022162229e+01
1.634257159174704555e+01 4.501960853802480500e+01 3.990617368773315121e+01
2.245693448474540688e+01 7.577279158990377539e+01 7.377732305113603672e+01
2.424264721810021062e+00 3.484621719802150075e+00 6.780374493053062679e+01
4.549073337477724976e+01 8.900419732317418209e+01 2.063894696892374370e+01
1.601946793453188178e+01 7.894426496901490964e+01 8.178004435647838477e+01
6.191783108562982818e+01 9.116249944569787544e+00 3.469273029364886440e+01
2.732492904334140604e+01 3.702686611886243639e+01 5.681924257928083932e+01
4.564789579438196654e+01 1.122465480808645388e+01 4.735286808493910371e+00
3.979198357511515383e+01 8.483303685635017644e+01 1.558525558902534769e+01
7.989630499785249640e+01 3.022433844923607538e+01 8.888768134909038565e+01
2.504000033356403776e+01 6.812715468109517758e+01 4.750593807811775093e+01
7.524871858877104103e+01 6.791809589180289208e+01 8.537498846914367334e+01
3.528198994385647325e+01 6.972344547853593255e+00 3.532144149506031283e+01
6.941379896249328851e+01 7.760702692557993032e+01 6.543317299015100730e+01
2.666865823718106299e+01 5.141575865081415486e+01 4.154259057463147542e+01
1.816061951033661614e+01 8.518866219422112351e+01 5.815795884313239839e+01
3.114611609293502781e+01 3.144555172518589359e+01 4.426476455057686366e+01
8.790896054966620454e+01 1.140889172442118848e+01 8.583964402159929818e+01
5.196364246717654112e+01 6.807574092994285309e+01 3.973762365153140763e+01
5.138672668335424731e+01 3.169927756023909282e+01 5.846749593240495813e+01
9.208686348250625997e+01 3.366690526251620952e+01 9.057151209440883477e+00
6.797088574545132644e+01 3.320898943549869387e+01 8.940862911345112707e+01
2.082754254170417951e+01 2.782540218814978417e+01 6.723568589332162837e+00
6.740159740487766271e+01 4.452484585690310581e+01 7.945566268133985943e+01
2.077902897075528799e+01 7.445656471068210180e+01 3.896980477822853395e+00
9.705646718539514950e+01 3.435889095916395775e+01 4.764619603421094141e+00
6.429193684080367177e+01 7.378439097308086048e+01 7.883881522335987313e+01
2.517902830914686518e+01 9.935121563187420790e+00 8.853312664611931382e+01
2.055022758315534404e+01 4.932815297483389116e+01 3.400211229298306392e+01
6.525648200891906470e+01 5.366426324945095416e+00 5.322204226072824440e+01
8.609736860803138825e+01 5.071754081919917212e+01 6.352518432210961663e+01
6.297644947493016332e+01 6.009063665422110745e+01 4.291317805380219141e+01
4.945811304026758393e+01 8.983149122302046408e+01 7.877537890975946766e+01
8.119737186489349767e+01 3.957748179419573464e+00 8.545088029627986259e+01
3.746947311011080473e+01 9.339739835790206612e+00 1.126263576031609759e+01
3.958987904485537968e+01 2.366219925446395678e+01 8.548626120496913927e+01
6.637577764640491296e+01 2.109893788211586596e+01 9.873856749292340851e+01
8.875583576470421576e+01 1.375448079848675675e+01 4.419695452021487370e+01
1.859441448485419457e+01 2.924561595664764013e+01 7.929349708076736647e+01
1.912722018085164422e+01 5.509742153033064938e+01 5.327817317695438248e+01
9.414450609959904170e+01 2.076879549964926142e+01 2.857969616141211588e+01
8.318994700000340003e+01 5.360200075654208973e+00 6.632828114972775779e+01
9.327729822728979059e+01 8.412088583624678506e+01 3.475840638892070444e+01
4.723690106355805796e+01 6.203904815557497443e+01 8.593164064834169835e+01
6.699584410731029394e+00 8.256178496005604472e+01 5.722204384621060314e+01
2.905896013207232009e+00 9.591722055428640203e+01 2.330697515760765626e+01
2.209286157419498853e+00 9.549434513259880575e+00 9.806896283757897947e+01
6.357214861358046676e+01 1.874070323445892328e+01 9.733352579550746952e+00
8.277496113958791568e+01 1.483145754433376950e+01 7.695187325444902626e+01
3.667396575294462480e+01 7.833312316929267638e+01 8.229999905965097184e+01
1.161885493097972777e+01 5.986493709428092558e+01 6.723515532283926177e+01
5.205861667217392963e+00 7.865471396701668994e+01 9.260106556882128359e+01
6.478337078905178714e+01 5.647498520699589797e+00 4.674208722717015974e+01
9.749642358212882698e+01 9.953432354573294560e+01 7.736038690142504493e+01
1.159843167905675365e+01 5.009708950444606046e+01 2.098189294670835636e+01
6.530761448877350972e+01 7.786625196656130754e+01 7.140519823044904513e+01
7.367516859189663592e+01 1.499236175510688618e+01 1.663637241430878788e+01
9.141089095459487623e+01 9.611073699695450046e+01 7.608177556177663803e+01
2.299157355885140674e+01 3.022021937001930780e+01 2.122681386588287644e+00
1.516351483016795676e+01 5.523978609885954683e+01 7.034186700582770868e+01
5.852403813192547943e+01 1.265258318571755858e+01 1.872939773437166622e+01
4.487488003841948370e+01 1.205548067033355153e+01 1.045893766203267461e+01
7.083878752222871356e+01 6.669575346166901397e+01 7.194396239517172376e+01
7.644852750587283197e+00 4.410908597968574441e+01 8.823105146374544461e+01
6.695852816034475552e+01 4.613182621160243002e+01 6.269273788875038633e+01
2.898889386894867215e+01 7.635491481125890800e+01 9.282125221004442039e+01
2.045664014692843935e+01 9.824454752822065373e+00 6.837429554477107274e+01
5.413055835225494405e+01 1.014493890299043066e+01 1.938107421612020786e+01
3.266279303302265191e+01 7.954217026690682246e+01 7.433372826885754137e+01
9.477364430158249320e+01 2.256413859778855269e+01 2.725570786940780721e+01
6.986909865238295936e+01 4.381782197594687744e+01 2.105081918313146261e+01
4.441453783949291534e+01 1.115650224276186719e+01 1.096873096917587631e+01
4.986839562012672644e+01 8.346874642769452635e+01 1.185072317641296991e+01
2.836347639950228583e+01 8.651555672440878197e+01 7.059844628018610990e+01
4.979424429420533471e+01 8.862956068834006373e+01 7.850018834676723145e+01
8.124701184611094362e+00 5.398014311701282431e-01 1.591581405095217150e+01
1.515622539218663967e+00 9.138618994673029761e+01 2.922601974453655771e+01
5.734890003287478066e+01 1.969004979012405343e+01 7.881188589956566659e+01
7.132112557908840245e+01 9.346797497421593448e+01 7.136229516015396257e+01
7.373621418725610965e+01 1.932619607597487743e+01 6.334209316181647864e+01
9.423239155063779293e+00 7.911436858833850749e+01 8.178747155554717096e+01
5.357225935033893904e+01 8.576854719357340784e+00 9.654477434567566263e+01
3.647280695522989902e+01 3.245293607333260866e+01 7.597752879626021638e+01
6.209444506137159436e+01 5.045032704992355121e+01 3.938472872700779703e+01
9.666362216171597765e+01 7.154225458750029532e+01 8.639215233341049327e+01
2.575758582856018108e+01 6.247661326958765216e+01 4.641084086456033475e+01
9.826487765738973224e+01 4.944981827696036447e+01 2.713357871497135143e+00
3.326494216254104686e+01 2.626776926602095585e+01 9.696338890767041363e+00
7.621919811720675852e+01 4.196243216874990623e+01 2.631385744847391095e+01
2.559690078996458240e+01 6.325398678717320422e+00 8.638217272483581155e+01
2.824426769290987593e+01 1.177136775542577674e+01 4.160726622251645068e+01
4.752964310559463001e+01 7.009299176218620175e+01 3.216941676621624424e+01
6.572755822485160593e+01 2.221522404164569764e+01 7.972985151264703063e+01
4.489681139268634524e+01 5.572742425066135041e+00 5.404279117609582528e+01
9.019955767971863736e+01 6.103785228480973046e+00 4.886924102888576016e+01
6.947305668018356073e+01 7.775865501945304459e+01 7.669009846311438139e+01
7.024117427688962323e+01 9.756683059177642292e+01 4.621590168365918849e+00
1.769394908454644622e+01 7.414053659550762632e+01 8.631669940230565885e+01
2.179541294536020501e+01 9.141408854594602929e+01 4.600307791514389777e+01
3.374357557549004838e+01 9.715370741109941832e+01 4.986585732809776061e+01
7.106871270926289696e+01 5.817541128708575116e+01 5.206677813438660252e+01
8.172289710214329261e+01 3.082418373270991907e+01 6.390458499564507377e+01
8.226071987852131429e+01 4.554207630744802060e+01 3.742096912168283751e+01
8.892930960690878806e+01 4.008933814044599586e+01 7.924190618700576749e+01
4.205740684225929016e+01 6.261119151994457610e+01 4.461468105754730118e+01
9.736892643517859369e+01 3.326928582697048853e+01 5.904003040133856928e+01
4.916681881558096023e+01 5.112212630542786940e+01 5.261011079281433211e+01
1.830659911639769177e+01 5.109930860131971286e+01 9.221393037446870267e+01
2.241229447644776940e+01 5.202389988143873722e+01 7.781972769783716615e+01
7.654413682750215742e+01 2.782362656570713799e+00 9.040499316683992959e+01
6.545456773464131572e+01 9.965586728963245378e+01 2.939154808450129508e+01
5.965695078862357548e+01 9.924117539593764548e+01 3.081224458578293479e+01
8.688401552301759523e+01 7.831149489332285896e+01 8.410914370662415251e+01
4.199063040550738890e+01 3.556251283582323452e+01 2.482924629799762073e+01
6.906111570548030443e+01 8.036797191786384076e+01 2.621083756366716599e+01
7.717176891230685953e+01 5.849272399343389139e+01 7.210238305395527902e+01
1.133208267606177166e+01 7.254942910267375566e+01 4.900934562358849611e-01
8.162499668107265904e+01 6.479542954573823010e+01 4.105661435679618165e+01
2.930705630131230777e+01 8.121834443858158181e+01 4.175326320722638940e+01
8.016613070898752369e+01 9.088698901066463520e+01 6.949743433142040772e+01
7.965888658579157067e+00 4.469056336775148708e+01 6.140924631307949966e+01
7.527869499803752262e+01 8.907195403513457066e+00 5.393266511410354624e+00
6.785027146195751868e+01 7.057541696070673254e+01 4.890170547613792706e+01
9.521619242368323910e+01 7.939230540124864177e+00 9.337872693217327935e+01
5.260174809596212953e+01 8.051356924743289767e+01 8.608032114609775576e+00
3.644527948441672294e+01 3.402806163121441241e+00 4.467727532894317122e+00
2.439971857656633247e+01 7.362990261567357209e+01 8.044489511424636419e+01
9.848116076697203880e+01 5.505291874576497690e+01 2.274099536650455633e+01
2.759610008121017444e+01 6.376598974714228518e+01 7.024859249140916972e+01
7.803137119630933682e+01 2.245985308718101425e+00 3.425347678386159345e+01
1.746698822579863020e+01 9.808348189274080653e+01 8.830739714487087610e+01
4.050001071916009110e+00 8.606502359035744121e+01 4.193612554972239082e+01
7.947963956848772682e+01 3.337779106853114541e+01 8.443341857658343486e+01
8.055835934244363727e+01 7.544611301907697509e+01 5.303407477240465795e+01
9.302723857293210585e+01 2.284469265802702154e+00 2.946273518969482197e+01
5.222562162649790451e+00 7.747766004265194795e+01 8.660236002337272510e+01
8.936866934147960251e+01 6.576432759118678462e+01 9.146464579893049063e+01
1.370814926770924558e+01 7.256430081733866189e+01 8.730485170168169873e+01
2.410535074291330204e+01 2.985037593682469037e+01 2.783939197707567814e+01
2.054013848841884737e+01 1.085811514896746210e+01 6.427292240604242579e+01
1.135798196191785081e+01 2.333268969379871294e+01 8.828456095125829961e+01
7.628890175945510066e+01 9.054579944810582504e+01 9.500088415461070213e+01
1.694353504904462326e+01 3.452493269226989270e+01 5.717416818570818293e+01
7.848200337316636421e+01 8.965837801781249539e+01 2.860183159088669491e+00
7.076203511500878562e+00 7.964213718907870998e+01 4.687323714308570999e+01
2.071307802220156979e+00 1.094376071631853975e+01 4.990931285413500973e+01
5.436193150527989104e+01 2.461879309516115200e+01 7.371668965991301548e+01
8.746162806285386182e+01 9.529640024471063953e+01 9.548862725212688929e+01
8.921748216975188939e+01 1.880119135180358114e+01 6.819909378182126147e+01
2.511204929893852267e+01 5.768339768745542528e+01 6.748308158874647233e+01
7.575648966872242340e+01 9.787294064987965214e+01 8.330272545402229412e+01
3.429091506713465520e+01 7.030158192756196911e+01 3.525997888751201259e+01
3.033291267482386289e+01 7.802264294884059836e+01 6.301613817967436404e+01
6.449317554637103456e+01 3.303498886124549472e+01 9.715039069460523535e+01
2.223278029472545114e+01 5.178039005943614370e+01 2.739347611316668107e+01
7.107628492478686155e+01 7.803823174747176949e+01 3.708950204265797623e+01
6.076926784961855788e+01 5.315082846958421925e+01 2.561728649755545817e+01
3.557536965483767233e+01 9.791860486461582980e+01 8.298861459834105503e+00
9.183525540632220441e+01 2.922302809809603730e+01 1.520749698282883955e+01
3.424197859147848533e+01 1.010246471782244626e+01 9.128525709240220465e+01
6.709567924133503425e+01 9.996454848031099516e+01 6.725195972128888400e+01
9.407973700925448668e+01 1.653763324133359447e+01 4.510640090039251504e+01
3.414282774824594213e+01 7.031674087561292197e+01 7.578718117988259451e+01
2.266248672397800235e+01 2.428979355978633237e+00 6.580087870337807487e+01
2.866847933722049824e-01 6.319661354210754922e+01 4.495214881066398505e+01
4.618545873630165488e+01 4.179711005489480158e+01 8.678542268095368684e+01
3.134370665449672799e+01 7.486255459976918303e+01 9.370613454236065287e-01
8.514527891807688320e+01 1.178845303028550617e+01 1.328706066338465419e+01
8.647751205656552997e+01 1.703346235707200407e+01 2.660985169654328519e+00
3.667888565088802721e+01 9.461883783465722786e+01 9.450351632266274393e+00
9.514403846559864064e+01 2.805983946922827599e+01 9.510973915268269252e+01
4.323625113118087882e+01 8.824472898645957741e+01 4.098880677310398823e+01
8.426433064845724630e+01 3.470245591250963457e+01 1.282424792943511704e+01
3.229746435628032231e+01 9.967656711244433154e+01 9.680579175279700621e+01
2.512085267266647293e+01 5.569562360293667069e+01 6.080008699305026454e+01
7.333088532540914173e+01 9.539666512774601870e+01 9.552064605870535274e+01
7.934902550858259929e+01 2.015954438932979897e+01 8.042965923073253975e+00
4.242116468827485676e+01 5.584206837452251193e+01 8.779183909178890133e+00
3.839089158680042413e+00 4.224589880597618929e+01 6.784568202465938214e+01
1.061995370337249867e+01 2.793837840057813438e+01 2.095400630656202168e+01
6.521394215594278876e+01 8.086358159302807280e+01 7.328772643687017307e+01
7.320415647214780108e+01 1.090526052769627086e+01 2.335075895413826075e+01
4.239088097690203227e+01 7.689342169179286657e+01 7.093585684655498369e+01
4.430263290201504844e+01 5.223452330356332851e+01 6.641047991491242897e+01
6.497889660530525191e+01 5.317022408263849087e+00 3.004387898774541910e+01
4.006671063476574801e+01 7.359224729732252968e+01 1.218012108365846835e+01
1.856113306241905647e+01 2.718965133725209782e+01 4.717366992963260941e+01
4.751931956098262333e+01 3.720732575540838383e+01 3.854204385471926742e+01
2.821690370421414684e+00 5.781093137943078375e+01 9.168341780078336001e+01
3.717865377313434294e+01 4.391347118125209192e+01 2.717049307360031207e+01
7.445648440486814934e+01 2.830482533068456874e+00 1.946506148077487097e+01
5.845849571868523498e+01 9.764154556517756589e+01 3.648771074697757655e+01
9.287015166229501517e+01 7.764325988753680008e+01 6.388981034367790812e+01
9.177680481099912413e+01 1.226394435022420915e+01 7.145475304256541449e+01
7.606103782909912070e+01 4.970670444397183729e+01 8.239902851500720260e+01
6.959703158694944136e+01 8.512621764456092421e+01 2.134883756424222767e+01
5.973944290853732042e+01 1.367968757883161146e+01 1.674199995797199847e+01
9.242793530822535786e+01 7.081243046044434664e+01 2.117767571954014727e+01
5.871519899745586457e+01 7.315207135623982992e+01 6.641485707407426275e+01
5.916092163912223256e+00 9.852506927698094330e+01 3.633239111831252188e+01
7.252137088604663973e+01 5.982941685845545265e+01 7.606800463879382335e+01
1.702657047128986889e+01 7.119575993917366930e+01 3.286665043154549437e+01
7.491137653277772301e+01 8.969491430463773440e+01 6.882804266629761969e+01
8.703056358896496647e+01 3.369315929456917758e+01 5.245716935875653775e+01
3.712552554710342179e+01 7.055345049129685719e+01 1.187067511216222115e+00
9.426830266702086192e+01 4.848614322452847603e+01 9.153789446953286557e+00
1.157931515341187279e+01 6.272428426855528727e+01 9.063108964652893462e+01
6.921759161004075622e+01 7.698093626616821439e+01 2.097000119600389567e+01
3.939336445624316241e+01 2.182045261810083847e+00 9.608675510995200852e+01
1.478190375668130230e+01 9.893801671881543314e+01 4.433323099236531561e+01
2.393510176110068599e+01 3.748631969386939744e+01 4.126558334306476183e+01
4.360953782393506373e+01 3.021768418574668402e+01 5.928544389664822489e+01
7.006364269960495506e+01 6.275388129534785975e+01 5.121150008307768786e+01
7.285100247806963125e+01 5.219260624196764553e+01 4.959600965276599283e+01
7.313172911124013353e+01 4.639453754431723809e+01 9.459289758068180731e+01
2.100546199066796049e+01 6.634397379445219656e+01 4.724804675860263359e+01
6.001623494674138470e+01 8.542734828000642722e+01 9.688161532513628060e+01
6.230878116516369580e+00 1.617076243370387800e+01 2.264862342541310625e+01
2.046367716891013089e+01 1.401495485430619325e+01 7.635465210859322838e+01
6.299092335425018518e+01 9.585922968262427446e+01 2.107943668889984323e+01
9.735688343790729959e+01 3.269176079521879075e+01 5.339139099374867925e+01
4.857818033777602551e+01 9.621281546713339594e+01 2.915090523564825986e+01
2.431200447309508306e+01 2.511237455191125534e+01 5.733826554258128283e+01
8.246621825865857147e+01 3.018922787346577508e+01 9.697268658837474220e+01
2.383793940841169956e+01 5.834564336787215666e+01 4.976839837056490268e+01
6.091147669783447682e+00 7.354976684390950936e+01 6.312797202037530298e+01
2.830251093328771717e+01 2.854066844106718648e+01 7.247645664664295850e+01
1.898926414927604256e+01 5.123369958014438907e+01 2.331693966270891138e+01
3.977952165779310434e+01 5.560304035906145970e+01 9.119787456579160789e+01
2.661491425592920024e+01 8.728706959618415695e+00 7.889471921085489114e+00
2.303073261944477146e+00 3.174560804882000653e+01 4.245908339135640830e+01
7.469181837735651186e+01 4.824893437016181252e+01 9.498295280052198564e+01
2.915924043478318595e+01 3.155922316308582509e+01 4.427116072945955949e+01
4.734552881495237386e+01 3.555202042162422771e+01 6.350099565859184025e+01
1.295591425286638554e+01 9.891433507916968892e+01 5.963184949947481783e+01
5.194004835598110503e+01 4.839828425425568525e+01 6.873232627327749356e+01
2.191196746871646539e+01 5.127406988272835520e+01 1.568067438168405658e+01
1.904316396777566567e+01 6.917181971269992857e+01 5.919245501683101196e+01
2.264160763659662834e+01 5.700511947969826565e+01 1.498816732255048301e+00
7.134816291413211786e+01 7.107081353184042882e+01 9.125167202178053572e+01
2.004115975788599613e+01 5.135528414574298495e+01 3.148497986596600029e+01
4.377163160623164373e+01 2.313090969957827170e+01 3.926513970740172255e+01
6.733451802458552038e+01 5.569613266753852088e+01 6.759271320149386497e+01
6.450060486672734328e+01 3.570764569683735346e+01 3.862192117353770726e+01
8.690775121431816785e+01 4.926230785955063851e+01 3.852440447149052716e+01
4.324421564536877582e+01 3.253564452692876330e+01 9.406591762896464104e+01
9.027925603789583420e+01 4.826499190882103107e+01 6.268409314545262134e+01
9.055406466844648605e+01 8.134976033242091376e+01 5.068523006659897590e+01
8.309306926523150594e+01 3.197704315363375471e+01 4.403250463724270958e+01
9.271756085911619039e+00 3.677702595055601620e+01 1.778767021497219503e+01
9.774261371921973307e+01 4.472182879486472729e+01 7.562661451065618223e+01
1.096122466052973365e+00 8.006475750182356421e+01 9.678714207001986836e+01
2.586073940225553969e+01 6.570431896544700123e+01 9.977504759951244750e+01
2.898255371332991714e+01 2.343298273865904591e+01 1.650961907420906982e+01
4.945370159035251589e+01 3.844202405688145063e+01 3.194527202148986689e+01
4.148702206922555291e+01 4.722696076845524260e+01 4.247739913229426634e+01
9.971757415940362534e+01 4.401851875066981279e+01 7.651070202192160252e+01
4.879277965313104914e+01 8.357830321940772933e+01 2.395823204580699439e+01
1.188563749467653707e+01 9.955943436705202032e+01 7.208196888866142160e+01
1.293830894680914056e+00 5.716685126339891809e+01 6.875215033384598939e+01
6.249342791333722502e+00 3.769625048583251470e+01 7.316390391019133688e+00
6.243393799564979929e+01 3.394463268662749300e+01 1.191137312749402888e+01
5.654796315532959738e+01 9.433805278460661725e+01 8.658704409733962848e+01
6.016073886289360217e+01 9.597523851338701206e+01 5.913416690657118124e+01
4.054651717707451297e+01 2.393946112321156861e+01 6.891597232682113372e+01
7.181409676598110536e+01 6.325999470527627722e+01 3.555353720694304087e+01
8.505589784988730173e+01 6.146882433361236764e+01 7.029967188836094394e+00
1.721779929988723623e+01 4.560971135530667020e-01 4.044573670567086765e+01
2.214832804673191191e+01 9.322041684440731046e+01 1.973873808705310751e+01
1.951664739921393732e+01 3.314079834317639950e+01 7.953665698084144253e+01
3.808676592504943414e+01 9.809810760095886906e+01 6.094069557784942504e+01
2.923301086464351783e+01 4.311454136468348963e+01 6.711588262507510194e+01
1.023838213829353450e+01 4.229003591572868714e+01 5.697621278081014395e+01
2.662690391534262702e+01 5.459897553902492717e+01 1.187656681600780573e+01
9.904274766926405960e+01 7.528143488778256653e+01 4.867432745887737866e+01
4.320313705532741189e+00 4.774926946388631421e+01 5.933952444808490156e+01
6.615170683923241768e+01 7.222322986254945931e+01 4.973059171399827250e+01
2.903660217557393253e+01 7.350984945825460670e+01 3.924079017507908773e-01
1.220635707532179381e+01 9.878134228682768025e+01 8.447711976026496927e+01
3.531418501355007322e+01 2.773759811019045429e+01 7.754815865106246520e+01
5.391723265948106558e+01 9.938600544481214172e+01 7.428734740061482000e+01
9.845658377577888132e+01 1.634719050797278683e+01 9.422135496661353216e+01
7.224650503277163693e+01 1.408094213363544256e+01 2.665559910817617606e+01
1.887311331025424010e+01 6.012150120089371086e+01 9.782075027167915948e+01
7.541144382549389036e+01 1.971778588103464358e+01 1.114175070859144689e+01
4.095847869884217118e+01 9.290655515715113211e+01 4.893494660777753325e+01
2.979977076259685731e+01 3.749211899660708980e+01 5.040306740169793187e+01
8.718837603390724666e+01 2.977729639937890482e+01 8.466250488180949674e+01
4.403946131488730487e+01 2.742413192740534811e+01 4.827885937169248365e+01
5.163975759681265032e+01 1.757670289993910018e+01 1.519702748581819307e+00
3.903453287651183246e+01 6.611158795800253074e+01 2.766522824581337758e+01
8.336892730565132581e+01 5.155818240429145050e+01 4.381266159805006311e+01
3.893110407329029954e+01 4.679808650411608539e+01 9.838207418499757750e+01
2.728624349428286777e+01 9.255245191795670223e+01 5.360720077762137770e+00
8.650605066276305877e+01 6.517307990652216176e+01 5.326425313175680287e+01
2.035743487048546907e+00 8.856159277153330400e-01 6.036800518696859541e+01
6.779613795070598314e+01 2.407066745044931366e+01 5.211594979968305807e+01
9.416050004147818697e+01 1.194854570645512659e+01 5.971750742800207234e+01
7.830646713796254232e+01 4.809264235110843089e+01 2.049032543171410836e+01
4.992725637365982294e+01 6.398188078197909334e+01 8.805634582229259877e+01
6.162265831569240504e+01 4.427529624564959931e+01 6.439262485391026303e+01
7.907768662468507159e+01 9.725806162478512817e+01 5.914352516854233244e+01
8.150558382586605433e+01 3.665440793818730558e+00 3.957773836441638338e+01
8.734635652977553377e+01 8.005185635843414360e+00 8.009161416756710139e+01
2.999760657202446978e+01 5.096203542260886366e+01 5.549213286922053356e+01
8.286763332191313225e+01 5.095682777597281188e+01 1.080732160450046386e+01
5.827027761489825508e+01 2.265288567049298507e+01 6.523243591791697327e+01
5.096892641139913849e+01 6.211059471073965454e+01 8.376747983372293049e+01
4.074012520949339233e+01 3.959310928491323267e+01 3.039213341672730806e+01
3.879043320482274737e+01 8.724939357594212197e+01 1.705198618380168085e+01
7.627891787212975316e+01 9.580324168674563623e+01 5.620548672999572659e+01
5.083773017546294426e+01 3.327682229068719266e+01 5.288421856676413313e+01
5.203460851996091208e+01 7.459828730184774770e+01 8.291914713185090591e+01
8.837353703798871152e+01 4.158896377950663492e+01 3.239070473282596652e+01
8.988064614875244729e+01 1.527448402511594239e+01 9.152923114908831792e+01
4.872783646335555829e+01 9.948511539214950972e+01 4.326675199196370158e+01
9.262217458957112015e+00 5.291156360817355164e+01 4.515271986260797377e+01
6.031210661045476229e+01 9.284574169116054065e+01 8.254015917514459488e+01
1.669050971662853300e+01 4.925011798537995844e+01 9.150624563731524574e+01
9.441551078630257621e+01 6.495627104325359369e+01 6.823995108973926449e+01
8.760687419975468515e+01 8.170110053302896347e+01 3.119174318834593151e+01
9.822685995742588716e+01 8.816814418574190881e+01 9.193392483201272114e+01
7.196661575839058855e+00 9.766314581364822800e+01 4.692100210608518296e+01
8.686848629704797986e+01 8.811477331225961507e+01 5.404061468403854462e+01
3.952332740866937311e+00 8.367117336340824352e+01 9.618034752904659967e+01
9.440450695469773734e+01 7.567407460765991800e+01 3.360260419283059719e+01
5.800369457491617453e+01 7.033339803759601239e+01 1.665845722125547468e+01
8.510905239399397715e+01 6.464230636139534170e+01 2.906473103333895303e+00
6.356300240073107233e+01 3.603935105158728902e+01 1.781584797401654185e+01
6.762646511750439515e+01 6.281305647819207394e+01 4.233419108698455346e+01
7.460547275512929843e-02 4.253992684789519529e+01 9.554199824990750045e+00
7.112013109433380009e+01 4.399430733438281038e+01 5.480164173959256146e+00
6.299278732418643045e+01 9.182084247180080183e+01 5.053258223399976856e+01
8.257878768224180988e+00 2.520406121789755360e+01 2.997279585054483064e+01
6.179666444358871047e+01 6.566823895400565902e+01 7.286341095683299329e+01
5.027999449557615463e+01 5.833725115649177440e+01 2.789534301267313410e+01
4.296126730522109938e+01 9.053441111943895692e+01 7.432765435803401211e+00
6.661709473325166186e+01 6.076254984270668125e+00 6.811184688083679362e+01
7.886035910855984810e+01 1.437501696624974201e+01 2.072748106209393271e+01
4.311849204491574739e+01 8.574176192557234799e+01 1.808366275885088115e+01
8.332453575475949492e+01 1.622531864787693934e+01 6.323283977099583808e+01
7.943075872088594735e+01 4.227252034674380354e+01 2.557104803291455752e+01
8.004767833731088444e+01 3.433597470113847194e-02 1.624573565856246571e+00
2.489186901224941195e+01 8.355934096185873727e+01 3.501708837465975677e+01
6.697464095596700417e+01 7.952300275452098788e+01 4.390068777743472594e+00
1.193863035262348049e+01 3.825614416147961094e+01 6.810123537052550091e+01
1.835053837478180938e+01 4.207203534125967082e+01 2.135417750013678528e+01
4.436447838344372485e+01 8.264529905464628712e+01 9.378136196714116579e+01
5.849982975819035147e+00 6.527098366336824142e+01 1.415383174954319934e+01
5.653030881503370608e+01 9.129777900922897516e+01 5.760483482602649730e+01
1.088479924908769547e+00 2.979296738937364708e+01 7.314065519327306220e+01
1.719885753046974486e+01 6.870638060588758833e+01 1.540636022208650147e+01
6.427252073349254857e+00 2.524180550496416586e+01 4.237013240218730914e+01
2.040991689521831631e+00 5.552884162062864704e+01 4.741841523581757656e+01
2.962553214625141962e+01 7.144760744839560118e+01 1.570951359711935069e+01
7.973544111501743714e+01 1.094138736086488528e+01 7.486758814701626363e+01
1.053825546374512712e+01 5.869592425216196574e+01 5.029791665085160446e+01
4.444244866788660175e+01 1.016441417034952366e+01 8.851283284187209688e+01
5.990937781461081357e+00 4.866036305428831099e+01 7.391331452580148209e+01
9.466768100890568860e+01 6.746060506112692678e+01 8.434566377716969043e+01
5.528034383975245447e+01 2.042686749546257374e+01 2.101589990838171929e+01
1.060985729284331569e+01 4.506808135505158219e+01 2.947888590537546349e+01
6.887072713003179558e+01 1.169681408710084902e+01 9.376483965196194958e+01
1.343370826541592322e+01 5.049302341816361661e+01 8.071593745949896004e+01
6.567587229818316530e+01 8.818691190971094329e+01 3.164267643017657505e+01
2.794953475489081285e+01 2.137505607519698714e+01 5.631478956947444203e+01
5.266061215339203727e+01 7.881938541457542158e+01 7.816011557472509708e+01
8.275024018681165217e+01 7.973110823237183453e+00 3.960199386859165571e+01
8.454739472577466586e+01 8.992314434846065296e+01 8.450158556933452303e+00
8.663928810485244014e+01 3.066489813366353090e+01 8.070692186766662246e+01
8.416373079140194591e+01 7.169151362701853714e+00 6.994286835105060618e+01
8.507839257365225194e+01 5.248955101638426157e+01 8.772345661151196339e+01
2.581817334084598414e+01 2.115600770026564348e+01 1.675124925614601690e+00
3.403134224589109635e+01 1.526367545706173168e+01 5.932854142309762580e+01
7.181757279557798768e+01 8.511564633363282439e+01 8.055156470333269425e+00
1.027843660858280828e+01 9.228022268786907034e+01 1.719927294990116806e+01
3.651755979975131794e+01 4.790015154194050240e+01 6.620383204659025012e+01
4.991222139103346223e+00 1.006798921247553658e-01 9.608168048254795224e+01
9.542065192890486003e+01 5.898024781089349489e+01 9.332221337288191876e+01
3.858870457061094328e+01 4.984294429267914950e+01 9.718390238149574145e+01
8.152445354229060115e+01 4.948418270525422002e+01 9.637086325731445413e+01
8.683614650696739545e+01 1.574725557464015147e+01 1.380907358496924431e+01
4.411645471392709084e+01 4.172128451837310337e+01 2.309466671651818714e+01
5.516033585099868475e+01 7.462813359971671900e+01 4.668834588540708808e+01
8.683782106934442879e+01 8.481842663546737526e+01 3.951488166829009430e+01
6.463011236626098821e+01 4.489254241689858560e+01 1.750874137295894784e+01
3.384958548024784619e+01 2.250618217033694179e+01 2.765497228620086290e+01
2.571618876033472390e+01 2.387006825188593240e+01 2.350781111384672073e+01
9.485006392069020364e+01 7.590797277553733124e+01 9.723442478722544990e+01
1.619881735888437646e+01 8.557926507112465231e+01 8.970562865413515397e+01
6.305313122932422232e+01 6.206678686663445177e+01 1.684192658970173895e+00
2.680480653286720916e+00 1.133533381631688286e+01 4.771130770172536018e+01
3.005589847759845412e+01 5.955878782933854154e+01 2.834000192952552766e+01
1.794668801116727863e+01 8.272796683139938523e+01 7.302340034673271418e+00
8.371405528751527925e+01 4.913720083086941770e+01 4.832488357594294826e+01
7.382816665909317067e+01 5.739297919032134843e+01 6.540857140861182017e+01
7.177762058228800868e+01 2.082836655572815232e+01 3.456865310937472202e+01
1.688219502990467902e+01 9.425998886029132962e+01 5.709808777103054922e+01
1.835298727092505899e+01 4.036114441407503506e+01 5.694090599144241338e+01
8.773985408875238079e+01 3.237492008420149858e+01 6.753682711283373408e+01
9.455064271624827654e+01 2.963757793998404821e+01 5.261217355481518609e+01
9.866153300476403842e+01 3.806946579662275809e+01 9.084679558145181133e-01
4.622457154917915290e+01 5.676964180427650319e+01 8.692217019427882718e+00
6.614379781058212870e+01 3.064320897830682355e+01 4.236459250692469425e+01
8.249670124549373895e+01 9.645990583425604825e+01 1.254172163600714107e+01
4.513769511280412416e+01 6.907595429366142348e-01 8.731405094313886650e+01
9.125473381772886228e+01 2.245026876618446821e+01 6.587508687680544028e+01
5.646479386118805621e+01 2.351782398680395403e+01 1.059047698838176998e+01
1.191001859114730976e+01 8.557338728945602213e+01 1.279645211704966101e+01
3.301348072218461738e+01 3.841062407552064961e+00 1.574594094795200849e+00
6.132507113346377281e+01 3.423614005819420925e+01 6.592498541690481773e+01
9.630135929660876570e+01 6.034130759519990761e+01 7.864065732471111403e+01
8.699811789000830231e+01 5.458261089366923358e+01 6.280154306023604249e+01
2.904068671977246652e+01 9.707749091767261973e+01 9.152847129639363288e+01
4.872882740272933688e+01 6.929244716902034895e+01 8.570461490925566750e+01
1.680319033947532859e+01 3.212370094348607807e+01 5.697858937803898982e+01
2.433798235240569596e+01 4.703126573220342976e+01 2.188350677172718051e+01
8.528378179443218698e+01 4.560511450372679576e+01 7.491890360566210916e+01
3.651930112037016229e-01 9.212419806530087385e+01 4.059956103173160358e+01
7.763283041802895923e+01 8.882948586922275069e+01 6.809498392840860959e+01
6.721888059312000507e+01 9.606375556768654178e+01 2.613112016408055638e+01
3.463642524978530446e+01 8.042744720701888639e+01 3.262490072211341641e+01
7.732511646380908132e+01 7.387416325762082181e+01 9.571992163215971061e+01
1.152200233378257721e+01 6.720641033477096471e+01 9.303870042812475560e+01
7.192703275155237463e+01 8.924521213831123134e+01 4.862242878040754590e+01
6.279721898198745578e+01 6.696264869116967589e+01 5.023056556726020005e+01
2.748021789988056440e+01 9.491449256333298479e+01 6.094713488697301784e+01
8.735040527277827493e+01 7.201362715646479273e+01 1.965453941509239755e+01
8.902964224597900511e+01 2.176902879383339950e+01 5.154702555177897949e+01
2.380943696246262675e+00 8.957352264724457314e+01 9.127763560895934347e+01
7.103316674849125434e+00 8.563661173708702279e+01 7.659194408702147427e+01
8.357776696008930628e+01 8.907479588335000642e+01 1.765877062128951014e+00
8.259533741387420491e+01 8.893293720126425228e+01 1.842630244175272836e+01
7.910377044776102196e+01 2.017351845466419746e+01 4.276781637637238020e+01
7.075850730487050555e+01 2.849157678874039235e+01 8.670833051424310156e+01
9.853752275707790886e+01 8.566384912039283961e+01 3.213460733435650241e+01
6.097181517524353112e+00 1.314747625304492118e+01 6.368804877717412438e+01
7.095566309746449463e+01 2.539603755625697801e+01 7.371567627492694896e+01
2.965670930586707854e+01 8.972075384639356344e+01 2.568556655870695238e+01
1.819360105745458966e+01 5.925617966863622144e+01 5.978919523258454660e+01
2.712740889416808088e+01 1.292308224640048664e+01 1.990360723569679635e+01
5.922279581849502961e+01 5.565651745315825139e+01 9.619543014432447592e+01
8.608791410345240536e+00 8.762783462826693892e+01 1.747950391719289698e+01
3.735930826645055447e+01 5.046132106223759450e+01 9.145375084226003537e+01
5.595487754361973032e+01 4.714487593658153486e+01 3.953174692619143560e+00
1.164955068437868491e+01 5.984887782681514068e+01 7.407827130223684264e+01
4.679115364369383911e+01 8.177314973207985815e+01 7.123843793843238359e+01
4.589349018520736223e+01 4.711483199727184434e+00 6.213550947067463426e+01
7.372516538945204445e+01 2.944469780694446470e+01 4.890392473128550677e+01
7.781636632684170252e+01 8.029204830703019979e+01 3.203496569353256973e+01
9.275983354801302028e+01 7.029101829466711138e+01 3.830554750815828857e+00
3.569536812428260930e+01 3.018207019855683271e+01 8.893543897647427343e+01
8.831163587495447587e+01 9.770703464034100705e+01 8.363440624352215025e+00
3.505552931724275822e+01 6.303688092549318611e+01 5.147673809340096795e+01
1.177698126865667216e+00 2.481212657170628333e+01 6.832144111258179464e+01
1.935050274183060992e+01 3.951675290962086962e+01 2.323475530673496792e+01
4.084161608126895260e+01 3.737281771054562540e+01 8.228550414860357876e+01
2.974712999462078145e+01 7.613635886632419414e+00 2.923796810148115810e+01
5.267447884490616161e+01 2.270329598514031488e-01 6.621167965769679142e+01
8.109804319283340135e+01 3.200896008976646101e+01 2.280271517212310073e+01
2.192052278539546872e+00 3.382778050158707916e+00 2.329454119791106592e+01
8.072172939901253130e+01 3.385020789287711551e+01 9.309294238905977181e+01
6.596000357833200667e+01 6.163908538971099915e+01 3.330645545525743501e+01
1.646857631610762951e+01 7.420392051202520634e+01 5.274630221940856956e-03
2.863675985975429228e+01 9.048873953987836671e+01 5.427792090530508062e+01
2.216407421288340984e+01 4.881253281812522005e+01 7.140726323853409951e+01
8.360910015122951222e+01 2.696570253707943721e+01 6.058710488279383810e+01
2.575154636296180755e+01 4.755496889485203127e+01 1.447745737313866954e+01
8.802092376997467227e+01 4.458274538652396046e+01 8.879035402033430557e+01
3.200462434084941776e+01 5.319767869216286726e+01 2.588934487382240590e+01
9.350781698284139054e+01 3.252055589343962083e+01 1.850554137730038207e+01
3.923816516803591981e+01 4.002412110704563020e+01 5.106684193218242740e+01
3.443602434801211842e+01 1.298238526678084881e+01 9.476233738518314453e+01
4.684316433339272834e+01 2.669250670601629594e+01 8.646291604024169430e+01
9.329938291601440881e+01 7.741822614603387365e+01 5.627887368133121271e+01
3.162709506639421875e+01 3.872032305858308376e+01 4.773448538211759740e+01
3.962386891209241924e+01 5.303569523424358323e+01 6.435990818591189111e+01
3.516784893940829448e+01 2.641449451754317579e+01 4.269763458043495774e+00
4.059888652381658147e+01 1.197768201400343280e+01 9.602544216537448563e+01
5.749444671337379020e+01 8.086725954700767716e+01 1.678634507161436140e+00
5.711203630929733066e+01 7.256028536496644676e+01 6.993800098487885464e+01
1.767453742294494745e+01 7.527483985775762498e+00 1.245474870587329796e+01
8.468157280610651583e+01 1.651976494472209112e+01 9.061358073400148783e+01
7.295796351633542542e+01 1.070207019526801062e+01 8.135081648509957120e+01
7.826815762106269858e+01 9.774387746874870686e+01 5.020693961590366428e+01
1.576526692931936680e+01 7.300641388921155794e+01 7.107070492857027944e+01
9.726628408382052271e+01 3.425451526676459579e+00 9.857698147030585289e+01
3.262462568505031157e+01 5.494291946855874897e+01 4.947841800875356455e+01
8.414897832290202473e+01 9.641625386039535783e+01 5.464380651292416502e+01
4.502561755499681340e+01 8.743661446960319950e+01 3.421758779897851355e+01
6.115355339453421024e+00 8.869753146016589085e+01 6.933225945090350706e+01
4.051096866329717550e+00 1.427160711669599458e+01 1.771542303183671763e+01
9.493070069212539863e+01 8.483832196984576512e+01 5.810914744192344017e+01
9.248024207986472334e+01 3.512673898602292155e+01 4.614088281165373928e+01
7.845414150343164295e+01 6.202137776291688454e+01 5.221618367333923061e+01
1.159332465813393043e+01 5.721845963393591461e+01 5.167838451975724468e+01
2.621139023577773131e+01 9.521709856701129127e+01 2.303292945656713187e+01
3.248933860996915257e+01 8.337104076666209096e+01 6.864055398542289765e+01
5.294407163532314087e+01 5.008414348523203330e+01 7.058637554928969848e+01
7.312771722615690351e+01 7.169570874973656771e+01 7.842202245610097577e+01
6.344742448613403951e+01 3.178368937324760424e+01 9.528877983720921918e+01
7.465628128918089601e+01 8.596441959458485371e+01 3.673344258525008854e+01
5.242258676817089480e+01 6.772349148542186015e+01 9.541140070195562828e+01
4.560843736465611897e+01 3.529905503919626852e+01 6.848410470179128140e+01
1.143342715659627729e+01 1.323515434400124313e+01 6.713897792691263078e+01
3.850687927175844294e+01 5.534814420869763296e+01 2.383750403581917965e+01
4.586395588546142932e+01 2.282197805651818712e+01 8.429055530310249367e+01
4.343757216941265398e+01 3.260723485569395308e+01 8.503791944102455602e+01
4.200733378618441805e+01 7.622967699031219979e+01 7.320044995373211805e+01
6.439323145125963599e-01 1.328014312093723781e+01 6.038729680632146568e+01
8.371591313329072648e+01 6.671818875420207462e+01 1.347345540308387868e+01
7.437596271342590626e+01 4.086718346232608212e+01 4.012091002231284875e+01
8.876094246096448614e+01 2.341246496999928084e+01 4.279180908667184013e+01
7.620801098444484722e+00 2.011617762525682451e+01 1.710407431303657688e+01
3.129244535602022736e+01 4.426899537775378235e+01 8.819097192619162229e+01
5.923447639362208150e+01 8.624302958038015277e+01 6.885928043994937298e+01
1.779212955907808436e+01 1.093219034966872449e+01 7.666637034146670260e+01
2.855742383139260454e+01 8.433569709658141278e+01 2.459101641073468869e+01
2.157042616036197735e+00 2.690228510471667178e+01 8.270762993343151948e+01
4.765791719546499650e+01 1.991619234941980210e+01 1.228704536861750007e+01
2.877767933083930174e+01 3.101801316023844457e+00 4.927898449544243498e+00
9.007739862244622486e+01 2.056108065387086725e+01 4.721689100661111382e+01
7.353813925795316564e+00 9.634910247449587928e+01 8.249367304911480403e+00
1.108545566083832767e+01 5.265656619896225266e+01 5.677647899810970245e+01
8.661565005267792117e+01 6.724187088432512382e+01 6.520728993342508772e+01
7.435619525078044489e+01 9.952575646772008611e+01 8.789139560645809013e+01
6.708501498850787925e+01 1.461558965115617958e+01 7.083668742418099384e+01
8.544547835685114023e+01 8.617237938135868092e+01 8.153950999771497621e+00
4.055902884192060753e+01 3.274631419770598484e+01 4.044253189540305726e+01
1.674033566659338845e+01 8.716548094045380424e+01 3.928215782505134257e+01
4.622346923525304874e+01 6.118910630009638396e+01 6.508927267043775089e+01
6.801044544808992498e+01 6.980958046626670921e+01 3.460928638295074222e+01
6.784596368249962950e+01 5.368578787217936110e+01 4.520029824174341115e+01
4.311536971121589090e+01 4.569451638269907079e+01 8.824766712709420347e+01
5.798544449292767666e+01 8.512931706825750666e+01 8.335783192233520822e+01
1.401540184608818240e+00 3.708752236329926344e+00 4.649124200038797738e+01
3.419982947087130043e+01 3.885459971439919968e+01 2.563401253833859172e+01
9.426491127601444475e+01 2.433117682680303773e+01 4.271803009579480204e+01
5.130152689342635597e+01 5.222783385666266298e+01 7.387351837110999853e+00
2.906045030191385337e+01 5.199729054648795312e+01 8.530419234722360500e+01
5.950323761467269890e+01 9.391918043472225008e+01 1.866204904469150705e+01
8.794797991549572203e+01 6.669825197028369246e+01 4.843053924910867636e+01
6.396975600975982701e+01 6.985203956145950599e+01 8.746968808430399811e-01
5.336643442002857540e+01 9.561656515418796687e+01 2.015271482591377605e+01
8.061236946781392021e+01 8.435360293158716161e+01 7.849710578475601608e+01
7.897237166201486858e+00 6.749055473401183747e+01 9.444451170281260488e+01
4.360929030610036961e+01 8.119237664117179065e+01 9.268815733331869922e+01
8.994200295978760806e+00 7.683163683924200882e+01 4.077605674816012993e+01
8.951647266352703980e+01 5.509163783512251911e+01 1.871257232726335573e+01
9.688730183710198673e+01 2.623403326648238121e+01 7.519616355693636933e+01
4.480805471084438807e+01 3.169198085808019272e+01 4.597402553151519555e+01
7.284763211321879339e+01 4.841045511275886781e+01 5.180768263332399215e+01
3.425569322288658469e+01 4.154850623792901843e+01 3.405580976759172529e+01
2.386499843392698850e+01 8.176650132678082628e+01 6.914907120200057022e+01
4.871505799170505746e+00 7.135256527544002836e+01 4.210334369031798474e+00
2.686186795785708981e+01 2.309093549729667316e+01 2.293570322527099847e+01
8.984439222201201503e+00 1.907745980569216471e+01 4.330740224275970718e+01
2.261524640305545475e+01 9.915791139191166792e+01 2.407752587503463459e+01
6.126783641887823251e+01 1.556015382360429555e+01 5.410787399992348412e+01
5.287717262894090453e+01 6.138265502759853831e+00 7.519009832081817990e+01
2.517577568541178223e+01 4.140161174966957702e+01 4.871385386367636983e+01
4.748776646655446143e+01 3.909622643878629678e+00 2.038909156944137635e+01
2.884976060820292432e+01 2.595973091531211807e+01 7.503819850879176556e+01
5.502614817817919146e+01 5.343049206600591106e+01 1.194088005958588994e+01
6.268618640330110026e+01 7.675781460303232606e-01 5.817860430135263528e+01
9.814410295471257939e+01 9.090778642207855853e+01 4.489402485494753847e+00
1.806924130075821111e+01 6.959271517456848244e+01 3.733558445379780988e+00
2.137366468703433142e+01 6.277575094945098044e+01 2.950169456071635210e+01
9.463958822223908385e+01 7.429284952655673635e+01 4.472054160544696089e+01
6.389740536330315024e+01 1.667962580237726300e+01 2.400070997668212058e+01
2.514847887409942118e+01 9.081669805419222996e+01 1.295991941559177008e+01
2.455983156213010687e+01 4.905902887227803433e+01 7.900670189652380770e+01
4.058903258825247917e+01 2.205608341223327429e+01 6.963507444886332109e+01
3.550383447295229189e+01 2.899412171042117237e+01 9.501109413672859105e+00
1.309047810487128416e+01 5.919049731909010603e+01 5.099379679588893310e+01
8.082535384114484600e+01 5.266991072739062218e+01 6.803133227264730465e+01
6.578290178681243106e+01 2.347366782144322173e+01 4.786753876195296442e+01
7.926851434122106355e+01 2.796686165160113902e+01 2.694749627915977896e+01
6.233285508789098373e+01 6.434731589049353317e+01 3.280791343577227082e+01
7.138782643280337936e+01 9.792855015561107734e+01 6.396827142964715307e+01
7.725848916814118184e+01 9.829853486966962350e+01 5.632691710418615827e+01
5.332940502108625225e+01 3.239061158372859239e+01 2.730239505612100004e+01
7.010646147223259561e+01 2.211433906461076759e+01 3.931712197482830362e+01
7.978139612927703794e-01 8.076526460028821930e+01 8.834645545690730728e+01
7.213437617768521193e+01 8.386567818581602829e-01 6.985754848514099535e+01
6.325670854772883445e+01 2.709898970804398743e+01 6.089385294270067561e+01
8.606841240642935986e+01 4.937666018401870360e+01 5.865131440742104019e+01
4.079381439800167541e+00 4.057289993177531784e+01 2.930739512755243936e+01
7.866663325416932651e+01 7.642161028758909680e+00 8.537429231471298863e+01
8.970886059295095549e+01 9.386917059315905476e+01 2.954503234283283319e+01
2.941695623298672402e+01 3.196916801396215746e+01 5.060177804787646494e+01
