9.167017847337255887e+00 8.095925270140210728e+01 8.251009695813829126e+01
1.075282325026507557e+01 8.450627528553445700e+01 9.064747651337253842e+01
8.545391827582903943e+00 8.693961488426359097e+01 9.943434388288748949e+01
1.257815791023398866e+01 9.294727395171653939e+01 6.649287243025636229e+00
1.402425186716693695e+01 8.832494625639807850e+01 1.315364614034972846e+01
8.056285920363793096e+00 8.816416311389039606e+01 2.211769269533769844e+01
8.223518842988742250e+00 9.351499439039015726e+01 2.794867976716475155e+01
9.683626126912992405e+00 9.448700493578380133e+01 3.302737033202608785e+01
1.106548121287961273e+01 9.009276791819365826e+01 4.679673891126823548e+01
1.012552185306432406e+01 8.885632089451029003e+01 5.488890727093267685e+01
8.173015685516260120e+00 8.827821351508220005e+01 5.687143777159668900e+01
1.113803514235333125e+01 8.987775004724191774e+01 6.772510213881352570e+01
1.174181097391917561e+01 9.090587896344965202e+01 7.992465954276153184e+01
1.359502802380800901e+01 9.123145776083767089e+01 8.275368324086699090e+01
1.024754750802737746e+01 9.529184719150724447e+01 9.415735229428867115e+01
1.558842685332664146e+01 8.971008177182396537e+01 9.702359755602350333e+01
1.161017008082387747e+01 9.818648186231995112e+01 4.408375055485813654e+00
8.401457809550516131e+00 9.694718012629819270e+01 9.932121019893235925e+00
1.481991841926609865e+01 9.636324214282119272e+01 2.066229369624094048e+01
9.216113340902310824e+00 9.902559738291013502e+01 2.594313325533130765e+01
1.204305688580398126e+01 9.776065098006392873e+01 3.866547903649679796e+01
1.173766817213519609e+01 9.787219723656434667e+01 4.031669874086693284e+01
1.481699104877474227e+01 9.749575830226132211e+01 5.300328858702080481e+01
1.524542498516472477e+01 9.737173279008791837e+01 6.034183585660080951e+01
1.028426108325741772e+01 9.793802228903672358e+01 6.485576271983165952e+01
1.404021990433017564e+01 9.859792840352498899e+01 7.307488520958293066e+01
8.219459605328205853e+00 9.682698045764367123e+01 8.430558996395515692e+01
1.472760712925145299e+01 9.742177477291347998e+01 9.161074916699874393e+01
8.300096847409522027e+00 9.805354235927660511e+01 9.885047878648833830e+01
1.959348223004333533e+01 1.798872299794884722e+00 1.255741839292401352e+00
2.305788377660413602e+01 3.144330430395947396e+00 8.907718371066531304e+00
1.762491727241236461e+01 3.007675703663614808e+00 2.259257866474441201e+01
2.229351052522410370e+01 1.805516459653766503e+00 2.686048857362576214e+01
1.900864203320103840e+01 9.128613981644551068e-01 3.310514118518690196e+01
1.914534554528354349e+01 2.074995994382311526e+00 4.509014045807797544e+01
2.052945029422642520e+01 3.331238098265576486e+00 5.513119782663243029e+01
2.121999157946163805e+01 6.977785264585378400e+00 5.613519008303911306e+01
2.152214135531421846e+01 4.878939018359407243e+00 6.621532076824176727e+01
1.974838021805588184e+01 5.814508864047995829e+00 7.701895753218744289e+01
1.905001639481150733e+01 5.085726076395546968e+00 8.126967911524960186e+01
1.747337499014831508e+01 2.467623820772835153e+00 9.038355982439524894e+01
1.825693395342960912e+01 5.486142340793930927e+00 9.888144476503309477e+01
2.025503805477276842e+01 1.069374577950871164e+01 7.686656108577216706e+00
2.186473234532275711e+01 8.474150686647574204e+00 1.468740453885821751e+01
2.099158952873265704e+01 8.898214050724018165e+00 1.847934224832854611e+01
2.224591455735698275e+01 1.000570487858896129e+01 2.583248581143846678e+01
2.349672330449400448e+01 8.971700816868944273e+00 3.774640664747004593e+01
2.035315787421049194e+01 9.747523530701496242e+00 4.224840964803420462e+01
2.385174811813415374e+01 1.335443529883495373e+01 5.082354715841817949e+01
2.260712301968607107e+01 8.241194921877958990e+00 5.903497090460061258e+01
2.316018675756366108e+01 1.137696543284853945e+01 7.029995105613083695e+01
1.898143907898197824e+01 1.390591763984020446e+01 7.670284967004148768e+01
2.066844852353454343e+01 1.531265396163424874e+01 8.159288868631314529e+01
2.366066074089303584e+01 1.525514271464795080e+01 8.807773915634975026e+01
2.036819827097100699e+01 1.458835117020269578e+01 9.944418914548545274e+01
1.687149376941313861e+01 1.709907966590524708e+01 3.282656334830014178e+00
1.922765907955291809e+01 1.807208162619450320e+01 1.161670314091056611e+01
2.329962054094124468e+01 2.382688945467752362e+01 2.253083565239929342e+01
1.766946206675781283e+01 1.897416406878700457e+01 2.695231887995591791e+01
1.837129773643860631e+01 1.719071750503944429e+01 3.255787435959385334e+01
1.610642432884897701e+01 2.384953062862102868e+01 4.592846918078031848e+01
1.969716294048614458e+01 2.367539079560037152e+01 5.111673690498788858e+01
1.888953539918541935e+01 1.766370116849653726e+01 5.987003773036908427e+01
1.663775006366681097e+01 2.158115935707020228e+01 6.641088373061292316e+01
2.234783091607015493e+01 1.784808815555800621e+01 7.834273081992128596e+01
1.659493467392412214e+01 2.384019724366813620e+01 8.517322052176845659e+01
1.637249473487677420e+01 2.043811938470393486e+01 9.475151520440651609e+01
2.054721734343126727e+01 2.201454939956327550e+01 9.741715339606439272e+01
1.967069704461976798e+01 3.159496250171655163e+01 6.530806154967949695e+00
2.133073218043500674e+01 2.605467517915062103e+01 8.394807016917605225e+00
2.257171190581893683e+01 2.574788718076820260e+01 1.793860709325049285e+01
1.812111335357223751e+01 2.614562559347870518e+01 2.496939658753217728e+01
2.061579008427412063e+01 2.857352721132456708e+01 3.640409461388897938e+01
2.019391038355897905e+01 2.824981795722288780e+01 4.300055602671979216e+01
2.316042182174467001e+01 2.787457939244703908e+01 5.513630546357013174e+01
2.316529204192561053e+01 2.793020945140729339e+01 5.954481293623894089e+01
2.209713459142054148e+01 2.508929675090529798e+01 7.084638777103661766e+01
2.194679068937791655e+01 3.031568103472396203e+01 7.312867275023994296e+01
2.265451334260015770e+01 3.198288850648779302e+01 8.784492959333354634e+01
2.031718257310449616e+01 2.980104509654353251e+01 9.450699391485710521e+01
2.020886505243850806e+01 2.676031895056406640e+01 9.624722351859998071e+01
1.735700273592001253e+01 3.801884447253291199e+01 5.479328770402247528e+00
1.692115989614968541e+01 3.359066413553490094e+01 8.456988813097821023e+00
1.702867447431676240e+01 3.732495544893453854e+01 2.243945280436629020e+01
2.247252672716777511e+01 3.426828200388946044e+01 2.950981261022549518e+01
1.763064987028213437e+01 3.332289013811639933e+01 3.983722329582991506e+01
2.082206993674607887e+01 3.369060228240194732e+01 4.425527874616697943e+01
1.961842379045727469e+01 3.948674953569511104e+01 5.054137278419502621e+01
2.288475212342455478e+01 3.533525131009324127e+01 6.265628771344260173e+01
1.957313726739773330e+01 3.712789511045666302e+01 7.031897227402424733e+01
2.022262942218876347e+01 3.764922539469359464e+01 7.833278518602311635e+01
2.393218664464917822e+01 3.585735340911055857e+01 8.658763049709784809e+01
2.301032507027229812e+01 3.344708716037255414e+01 9.198659634582783440e+01
1.869774635152687736e+01 3.461322166682185753e+01 9.964020238511696448e+01
1.831156407163025790e+01 4.322454340795749772e+01 5.353715570942318536e+00
1.618302085525516887e+01 4.113376786399552998e+01 9.355912500820828370e+00
2.278299324623841571e+01 4.422458765255050395e+01 1.767655227538176277e+01
1.713486374199056783e+01 4.228204034644419096e+01 2.754041247180155594e+01
2.158697211066995436e+01 4.367804381511108147e+01 3.488672627695444106e+01
2.217109706465857499e+01 4.744231978719313503e+01 4.099029033724630722e+01
2.258926731467437676e+01 4.597592782339043538e+01 5.105335684348730751e+01
1.607501103245396834e+01 4.333011096890634661e+01 6.098307799605242963e+01
2.261409124488630340e+01 4.386129452002768403e+01 7.196971708354065811e+01
2.052335146081523121e+01 4.776194391943639772e+01 7.723839933190846807e+01
1.970577499333692373e+01 4.628402850440570404e+01 8.197124752296063832e+01
1.932370107256701175e+01 4.225669095507684858e+01 9.069075082534263288e+01
2.293244858147500764e+01 4.402129701857789001e+01 9.660903845927231259e+01
1.827593853351194753e+01 5.204409323274126109e+01 3.160707699961351480e+00
1.741953886251760153e+01 5.368932403170181544e+01 1.584960478932048211e+01
1.926496209691891437e+01 4.872902771595916960e+01 1.777268824078047516e+01
2.117163876538629097e+01 5.124224657645477521e+01 2.699648717856550917e+01
1.639871701051035657e+01 5.289427373456111781e+01 3.750127683091874076e+01
1.899423262967205872e+01 5.052307687302721462e+01 4.293120343029277564e+01
2.021291667105009537e+01 5.182572898061598465e+01 5.459825449169753853e+01
2.343772705846884818e+01 5.575813075374615835e+01 5.732445168007107839e+01
1.871265746759136306e+01 5.157980356428149094e+01 6.594179895741054054e+01
1.999896643376504102e+01 5.356273001345223150e+01 7.883799619781164836e+01
1.807726964796045976e+01 5.549714814313036726e+01 8.015168922617645819e+01
2.383103482671445761e+01 5.265798764060218673e+01 9.106521988521602395e+01
2.134600721254778932e+01 4.843974675837326060e+01 9.755704088646783134e+01
2.072128848036560811e+01 6.127841239419482378e+01 5.356561284842930704e+00
2.228747813018511081e+01 5.872237108499776781e+01 1.053529666733897763e+01
1.843587399210717592e+01 6.193510559739259236e+01 1.879279682834847875e+01
2.280307400344376845e+01 6.162007116363064085e+01 2.512194449982403199e+01
2.043639337189687666e+01 6.233456818661567667e+01 3.231986694654275993e+01
2.336712138064095257e+01 5.760945802911003000e+01 4.660034693540926298e+01
1.875674439418359896e+01 6.150457304322222996e+01 5.406317818357343441e+01
1.610052784444330243e+01 5.707410979360185621e+01 5.698454885723421626e+01
1.985426702513254327e+01 5.701212972040341498e+01 6.778112412732620840e+01
2.135119141655824748e+01 5.769515722337654751e+01 7.765735309688092514e+01
2.289528612276298247e+01 6.175700511714681085e+01 8.481309154738877965e+01
2.114782633363422448e+01 6.278010516572716426e+01 8.834501828501298348e+01
1.649341089191010923e+01 5.683600543953474471e+01 9.663047728540720982e+01
1.608300657818033841e+01 7.018885661039358581e+01 7.486955108378712254e-01
2.364505619688515026e+01 7.037154464929209041e+01 1.167050914978925391e+01
1.750845883075395903e+01 6.831484231196863277e+01 1.974325761639586929e+01
2.013580665444981577e+01 6.713543753391745383e+01 3.171601283372567082e+01
2.293418561256236288e+01 6.729386629336499936e+01 3.447690558890247559e+01
2.018530532220296081e+01 6.975279627431180529e+01 4.430588421247026076e+01
1.984850443587385982e+01 6.535856337615942380e+01 5.523131529392765060e+01
2.307911631839758471e+01 7.111948784143034175e+01 6.007917394977801706e+01
2.009367875103560408e+01 6.737297030834908185e+01 6.600671410326842192e+01
2.006386780400280045e+01 6.760447256820204132e+01 7.793489300044107893e+01
1.649376327024886280e+01 7.023705229658105509e+01 8.007539614365296643e+01
2.353484670659447175e+01 6.567134225326132935e+01 9.379084352612720465e+01
2.357636070584232613e+01 6.776013513120322784e+01 9.784966597315525405e+01
2.334756741092976995e+01 7.347614460545612758e+01 1.650600371073684958e+00
1.713099362963808048e+01 7.723837593764496035e+01 1.599998220818283912e+01
2.280683261878350265e+01 7.707210411909484549e+01 1.630052111042468255e+01
1.645766311841351381e+01 7.746719573793239988e+01 2.443552557372398226e+01
2.346444437766334090e+01 7.978128247224971403e+01 3.764961577545091842e+01
1.675049818346152719e+01 7.555523634961153334e+01 4.420142214656506496e+01
2.249530219156644506e+01 7.534599455674803892e+01 5.584910930795439299e+01
2.141890803944222910e+01 7.878589882089339369e+01 6.081094688480550303e+01
2.259576516383325995e+01 7.775515723417115055e+01 7.025880826720879213e+01
2.243441838255336762e+01 7.286807545963914379e+01 7.851907041002318977e+01
1.985679649801862467e+01 7.783929000497317929e+01 8.467149106708491502e+01
1.670649742784278047e+01 7.880859991285792887e+01 9.343374752084481827e+01
1.778934425476879255e+01 7.368287699886343489e+01 9.906178064043940878e+01
2.228706945344193358e+01 8.003986251970131605e+01 6.939719687735856901e+00
2.254860114553363104e+01 8.609793417590474007e+01 1.463731254706796037e+01
1.773529406429427269e+01 8.661920701798658229e+01 1.865567238361040125e+01
2.223659965586147891e+01 8.353777245981066812e+01 3.040584714777768838e+01
2.267663200367171328e+01 8.207998746221409192e+01 3.228350432830468719e+01
2.302814382213900046e+01 8.148604351789141731e+01 4.181237146358237311e+01
1.797999721138408091e+01 8.497702386795134544e+01 5.021322216757734225e+01
1.754853316855057344e+01 8.442108229523141461e+01 5.681904030457746302e+01
2.372840810876349948e+01 8.076402255354527426e+01 6.515265318511340809e+01
2.283369150518559465e+01 8.104441595836347290e+01 7.583034288791591848e+01
2.236435987314596829e+01 8.738333721434726442e+01 8.097912529376630175e+01
1.860309541189257843e+01 8.125258877662959378e+01 9.537291153251699427e+01
1.731145270753390264e+01 8.676257078753833696e+01 9.727441303875026790e+01
2.239206889236967513e+01 9.370961587775582302e+01 1.117870910375629023e-01
2.301275958429996749e+01 8.869606784153586432e+01 1.111106927772694775e+01
1.878310132130415155e+01 9.169493935841946097e+01 2.291585514670391177e+01
1.953230061559768771e+01 9.376806914042082042e+01 2.940160322135719895e+01
1.869400711904444279e+01 8.953376995949425066e+01 3.493877339954912742e+01
1.780223742818285615e+01 9.566050285876829662e+01 4.770731594651925889e+01
2.075010539831279033e+01 9.068050219750622887e+01 5.446442062704799270e+01
2.388067993569613634e+01 8.926817945496414097e+01 6.309617531436594362e+01
2.266846847767014594e+01 9.540887872568993089e+01 6.955482318686817678e+01
2.050666895823698610e+01 8.897809977660833169e+01 7.892784018128317314e+01
1.798404960750423953e+01 9.054594052129671411e+01 8.554522533056444900e+01
2.046160654154694925e+01 8.912474615593107785e+01 8.810992433556994285e+01
2.223508955850838120e+01 9.523756226995473639e+01 9.812709562002504526e+01
2.174346425328688071e+01 9.880119082572922196e+01 7.683516440763593636e-01
2.192711107757584443e+01 9.954469845102464376e+01 1.016208661051135564e+01
1.988037439811652973e+01 9.829513777757074422e+01 2.064788148352605290e+01
2.292051936954406699e+01 9.664957929783713553e+01 3.022753454683784113e+01
1.813175649439254755e+01 9.812239679434898676e+01 3.689111748660089773e+01
1.977395182601722112e+01 9.770745653242519779e+01 4.057251430130364156e+01
1.939261171329591349e+01 9.932471689149551253e+01 4.979552170018077817e+01
1.604553914839523898e+01 9.680842653134213549e+01 6.340753184142747045e+01
2.077918509083088594e+01 9.637916345475194646e+01 6.703646852335661777e+01
1.750154728712394103e+01 9.977273134803596122e+01 7.667558290519983188e+01
2.162752166902566131e+01 9.660434836051203433e+01 8.043911129567324281e+01
2.370011144793454605e+01 9.967244066624616039e+01 9.376293341486253041e+01
2.334371251099857147e+01 9.714143809617050351e+01 9.966273479973716576e+01
2.791274931820571936e+01 2.813254173255275159e+00 7.678541905836466341e+00
2.650788121203266812e+01 4.282130469598300238e+00 9.267007542374139817e+00
2.708828480938039007e+01 2.520161970198686596e+00 2.374328538617692530e+01
2.688913988055434601e+01 1.276749599671211932e+00 2.716314860889470495e+01
2.911761455860322201e+01 7.919574224228709269e+00 3.255942776391369620e+01
2.784815856730897821e+01 2.116522655672248288e+00 4.502622082283449600e+01
2.606430466417117842e+01 7.990820750302551900e-01 5.143048036351372332e+01
2.471430217610861746e+01 8.673130844519261196e-01 5.900613290204923800e+01
3.086436801999625601e+01 5.624345818901366201e-01 6.610572933251329175e+01
2.951995813049420647e+01 3.476005042289553870e+00 7.321865609229159588e+01
2.522605523167244002e+01 7.233313186844747555e+00 8.442365558537954939e+01
2.478104942139940192e+01 7.240848474055516348e+00 8.933947871273602459e+01
2.499120596509838421e+01 4.427281863966681108e-01 9.995852424017984106e+01
3.084406295963907496e+01 1.467412867390147646e+01 2.848808804425662089e+00
2.691864005191544251e+01 1.049409150196458640e+01 1.142896699276646544e+01
2.686681988152886902e+01 1.047637324396628600e+01 2.204489448420673270e+01
2.428308432472135081e+01 1.086398577449065783e+01 2.665196497572634016e+01
3.015046275814249199e+01 9.275708562655038847e+00 3.772100375382696313e+01
2.616905773088289422e+01 1.261941128903623088e+01 4.282903038915056726e+01
2.426276986290814008e+01 1.318326158054424724e+01 5.553117610481669431e+01
2.405634994836674068e+01 1.275423683996412905e+01 6.200230157878900883e+01
3.135339450345023948e+01 1.501396646209103380e+01 7.138529961505437882e+01
2.977345167457221464e+01 1.444997513734972472e+01 7.582487204697025618e+01
3.021049995360997187e+01 9.017948733937753758e+00 8.012447531270473178e+01
2.952942750606792899e+01 9.554082785141959633e+00 8.948374975275301324e+01
2.557417433056965450e+01 1.461055150522486734e+01 9.774778285574086567e+01
3.184972508016386072e+01 2.261880739226322845e+01 7.988483762312281300e+00
2.588270386753776009e+01 2.044665694293150793e+01 1.167355613387219826e+01
2.964958721695646204e+01 2.055151841784511646e+01 2.035286704707515071e+01
2.819645325958046556e+01 1.868326810464940735e+01 2.904847639729633002e+01
2.500086019107734359e+01 2.151777076610579087e+01 3.954490420939848150e+01
2.937804961771313117e+01 2.195422205247673375e+01 4.399448847315762379e+01
3.132429295330213392e+01 2.274680521733630911e+01 5.388053969037181901e+01
3.091969838508223845e+01 2.133073905655226099e+01 5.717126640593181008e+01
2.593965604944465753e+01 1.863455253624917063e+01 6.446893718870381917e+01
3.172137496953552116e+01 1.911260733115440758e+01 7.732153932751613468e+01
2.562685924677640159e+01 1.751572918261094003e+01 8.212493242197722054e+01
2.468869126117002466e+01 2.373861010984056463e+01 9.561895496959866136e+01
3.140515284832077114e+01 1.666471085307953359e+01 9.605655847300317873e+01
2.901221472634731668e+01 2.999272707826418127e+01 5.001015107876471966e+00
2.536488730399244673e+01 2.677399430410039116e+01 1.009750138490951343e+01
3.062888649632320437e+01 3.142970177108829333e+01 1.645364958283593992e+01
2.939722862580860152e+01 2.454800783703304745e+01 3.011024451741925034e+01
2.400065675305559409e+01 2.628051680115402888e+01 3.936725667081475422e+01
2.473962171712099689e+01 2.776953146673787387e+01 4.154630433421063884e+01
2.680901393818352219e+01 2.538250109340455296e+01 4.958540820569146490e+01
2.608989096731285784e+01 2.555088069110402671e+01 5.839312709467760953e+01
2.693171985695712678e+01 2.566097496306515424e+01 6.976166540455469089e+01
2.881898985888389220e+01 2.708741266523392355e+01 7.207032371880741550e+01
2.952672703049614711e+01 2.749830491365895568e+01 8.399997045794931694e+01
3.077239956239609242e+01 2.880111857162528466e+01 9.585934554746894776e+01
3.066633397211198186e+01 2.482437085487440953e+01 9.996085973112161582e+01
2.561529068444082924e+01 3.923494480405286566e+01 4.880393673374216590e+00
2.673083975987057315e+01 3.770842832434654213e+01 1.307144160133328903e+01
2.748144284458918918e+01 3.902698328970121366e+01 2.282377778478912234e+01
2.515064360506635666e+01 3.359761540794180235e+01 2.640502258916798084e+01
2.723795541986562085e+01 3.503945752861623930e+01 3.519388372189123970e+01
2.711677208787659410e+01 3.524320439325102683e+01 4.235742545429622652e+01
2.937196922530901233e+01 3.592488645871588915e+01 4.823791957168580780e+01
3.112001890960119965e+01 3.723601190544746231e+01 6.166430881148943399e+01
3.086040556482406672e+01 3.220806623159683113e+01 6.411986195429179247e+01
2.601924986863089018e+01 3.730878816820739985e+01 7.886323112933474988e+01
2.495168676650703077e+01 3.904902750167128289e+01 8.026120572312784418e+01
3.042468544963458044e+01 3.613877694912284255e+01 9.421192242417333773e+01
2.818267737449141563e+01 3.527041844116310187e+01 9.812765475122554903e+01
2.442017729855462349e+01 4.299248780077717669e+01 3.964112017725696102e+00
3.027719618520022848e+01 4.350318585918844150e+01 1.314289999735850323e+01
2.902739527629859495e+01 4.153456774873816215e+01 2.287001036031134404e+01
2.760333640394864219e+01 4.652558307252535741e+01 3.078747520518424352e+01
2.708647938832717728e+01 4.172209024952258005e+01 3.766454305725152096e+01
2.425258255442755839e+01 4.648066173900436127e+01 4.682780020086180173e+01
2.818287450113108150e+01 4.444066934850866346e+01 5.512296171377649756e+01
2.468198301787214533e+01 4.093997360876235092e+01 5.607891771223192734e+01
3.193792507065968778e+01 4.365575792542421141e+01 6.578969282910863114e+01
2.657777161543175737e+01 4.087446552349594242e+01 7.207421713217388515e+01
2.911330382354441326e+01 4.492450127095876411e+01 8.210292845386628358e+01
2.872049363387687748e+01 4.793277690581341233e+01 9.506010824522144276e+01
2.473107870747397641e+01 4.191941190779835580e+01 9.717880148580540833e+01
2.540715524186670748e+01 5.172572741412566444e+01 5.789924386317368388e+00
2.658961805375976795e+01 5.463889537584540790e+01 1.444305980496104524e+01
2.686347910268771599e+01 5.172494425963348874e+01 2.287204771486835853e+01
2.620960624681839590e+01 5.381226832266815308e+01 2.696383109069686412e+01
2.920496397709145953e+01 5.400943062217544366e+01 3.356558252938513931e+01
2.704557287647567776e+01 5.019676469381917627e+01 4.710063314328329653e+01
3.075723567923659374e+01 5.219671169847183023e+01 5.057657683566358742e+01
3.101154274267808830e+01 5.348469291442974338e+01 5.678275764494014055e+01
2.900194933778359285e+01 5.437192574259622546e+01 6.689937237127351466e+01
3.173366888961435350e+01 4.911438745734806588e+01 7.714706445422780234e+01
3.083678422764453231e+01 5.139800945938713994e+01 8.472597979398848622e+01
2.433660930091571117e+01 5.512659780948607846e+01 9.263348793469991449e+01
2.521572408522585462e+01 5.210450839604823159e+01 9.951272981570781440e+01
2.458553032387620263e+01 5.846319134380660643e+01 1.000881478446902229e+00
2.530310819353361751e+01 6.310142806569937335e+01 1.379704263601131409e+01
2.789473320216834296e+01 5.817264595057832821e+01 1.970927934089035105e+01
2.730578275487624040e+01 5.763626373733288233e+01 2.607985608294995927e+01
2.652209447048988622e+01 6.393208062964623650e+01 3.348476748000535252e+01
2.731572689967205392e+01 6.264281920052368946e+01 4.267382005463646522e+01
2.967834452176988336e+01 6.265756614103266031e+01 4.824408784288177543e+01
3.045737468063188658e+01 5.752109988114118266e+01 5.796533292329524301e+01
2.620026921456516433e+01 6.067312547183126981e+01 6.649560492485392160e+01
2.684303046878384436e+01 6.009239393376759608e+01 7.216965485300565319e+01
2.454939199382978288e+01 6.399714523369628694e+01 8.626110032565655672e+01
2.510324066185003389e+01 6.357948391042835823e+01 8.988069552368435211e+01
2.763818770868060426e+01 5.611513876339940055e+01 9.948556072656889171e+01
3.048036647274929933e+01 6.749161101189322665e+01 7.895924927208697319e-01
3.011941478446173903e+01 6.598402886101169429e+01 1.124399808011161639e+01
2.530534758192899503e+01 7.129394184051857053e+01 2.000218321650691777e+01
2.638410509685396121e+01 6.493935773477794271e+01 2.956039183441021478e+01
2.679727774118385497e+01 7.196047348470406746e+01 3.237974446784900096e+01
3.140769162731318431e+01 6.521318015980561711e+01 4.574153686648509876e+01
2.887638821843951931e+01 6.795018509236987825e+01 4.929539623535050907e+01
2.900549070571145549e+01 6.674011393312706275e+01 5.697380734247867906e+01
2.886653232344532682e+01 6.972707574601193414e+01 6.423369045902657604e+01
2.634017190944126696e+01 6.739614284130121291e+01 7.271909682789838314e+01
2.559807134906850834e+01 7.122588473727459757e+01 8.426408351555686238e+01
2.922670518364284220e+01 7.199517511730122976e+01 9.000751322069973526e+01
3.158802584337330188e+01 6.994933069076961374e+01 9.751479873425581957e+01
2.675413826378159143e+01 7.751280299028935872e+01 1.733722731251496896e-01
2.436975491309965136e+01 7.598897907527579321e+01 1.182462931051202482e+01
3.065903959467701867e+01 7.491586693920211815e+01 2.250516109520737018e+01
3.042552074986178923e+01 7.859863513325235829e+01 2.880957067575702268e+01
2.937238136577131797e+01 7.566926785142368317e+01 3.792643834951784498e+01
3.076379237417483736e+01 7.561527225234424066e+01 4.067480186818860233e+01
2.809845159214955501e+01 7.925107248437245744e+01 5.017726598007812555e+01
3.126647847131056679e+01 7.586763820452490847e+01 6.084571620068083320e+01
2.548514282965771471e+01 7.256468951913275589e+01 6.540242257148935323e+01
3.051924115466060528e+01 7.450113831910390161e+01 7.407431239999269224e+01
2.709683669516025262e+01 7.228472051068499127e+01 8.647912538324281684e+01
2.511717822012313661e+01 7.621827702538797666e+01 9.192392778157872613e+01
3.129134515668386030e+01 7.335741666080922130e+01 9.905345663033175185e+01
2.758792122693198934e+01 8.172475792394808991e+01 6.042139477750929188e+00
2.643364024376185739e+01 8.478400786670457023e+01 9.074463796855736675e+00
2.816095138922823793e+01 8.054830172778424924e+01 1.949583668523998625e+01
3.118503126686751159e+01 8.721486018464457857e+01 2.406501185173413049e+01
2.645586609277216184e+01 8.793989933676374449e+01 3.313038048066838570e+01
2.790775390043059900e+01 8.103924563137761083e+01 4.777380671607682672e+01
2.505469484556424220e+01 8.530647969281679366e+01 5.404866129102843075e+01
2.761517540772804225e+01 8.325367163300305151e+01 6.140416047472157857e+01
2.751702852845522429e+01 8.080078117106089053e+01 6.472705688978581406e+01
3.074615157289262157e+01 8.413665670094742666e+01 7.451804174497051747e+01
2.782597503997726918e+01 8.115647188520692623e+01 8.287356150112351827e+01
2.694489431990916373e+01 8.451503620113314241e+01 8.961105039081203927e+01
3.124443591962262445e+01 8.361319034035408038e+01 9.974496107945094536e+01
3.010266329452630885e+01 8.912643674054949372e+01 2.867494815904914063e+00
2.441029128166477591e+01 9.598490544540236158e+01 1.450929311545712252e+01
3.121636636615786742e+01 8.990628337706240814e+01 2.048713186391006857e+01
3.149811609328926210e+01 9.390836051217966940e+01 2.559377952154774505e+01
2.541527852567424617e+01 9.202658961453815323e+01 3.576445932593254895e+01
2.902290702919121301e+01 9.404261764679282010e+01 4.153222459385845866e+01
2.913380185060810845e+01 9.274844347816268453e+01 5.023054659972745384e+01
3.155702317093149745e+01 9.359517286857308704e+01 5.804540338846791059e+01
2.872837598757840283e+01 8.971993580822183390e+01 6.440893091911217994e+01
2.505419551681744395e+01 9.033639302893354284e+01 7.504406948233402375e+01
2.589044101360197203e+01 9.251459925277947605e+01 8.292190344565753435e+01
2.457310090873667718e+01 8.853499799700040285e+01 9.131562224722237886e+01
2.748457501068086728e+01 9.294293202131035514e+01 9.762240337599983775e+01
2.462969373153062236e+01 9.603382341011695189e+01 7.517721934032140396e+00
2.474096867537035749e+01 9.673388797677867501e+01 1.116728023114620427e+01
2.751704983021383555e+01 9.993543396128417555e+01 1.826093838441247286e+01
2.707276761400724396e+01 9.630282730865046403e+01 2.799635289325853549e+01
2.795513900275760122e+01 9.665192810656590439e+01 3.627786933840602046e+01
2.727822747604712461e+01 9.970514703938391676e+01 4.557912223868397916e+01
3.197681913310984569e+01 9.817481062845730833e+01 4.982367728305720078e+01
2.404719868554574447e+01 9.869265172032577027e+01 5.763316720173705932e+01
2.948460278501132592e+01 9.825188794758248889e+01 6.871598243701288311e+01
2.874302176366121486e+01 9.764686497748135707e+01 7.405303822631405808e+01
2.873248116766131588e+01 9.907217036373593544e+01 8.529022663171686247e+01
2.641041085732548410e+01 9.987379150113498838e+01 8.855790683348450898e+01
2.928928335980767272e+01 9.612331485539579035e+01 9.731922808455692575e+01
3.767065701598523475e+01 2.790455879489051050e+00 5.924327965070308011e+00
3.783211132118780284e+01 7.919293971141216915e-01 1.276304350989391168e+01
3.725364158173623252e+01 2.890428323032390168e+00 2.236107418440370509e+01
3.365966854302944000e+01 4.423968657040644459e-01 2.882576732208833548e+01
3.566290167397807664e+01 1.511822088366321371e+00 3.390664650024562121e+01
3.392018094092850333e+01 2.784584035868942209e+00 4.537552873863447189e+01
3.465976545963213340e+01 5.385655937005607186e+00 5.232540767610743870e+01
3.578975525362275789e+01 5.383794772690054131e+00 6.123032360633683169e+01
3.785923924943352148e+01 4.931186042299041006e+00 6.838039535281990311e+01
3.711879595050903902e+01 5.290895207069191031e+00 7.640183011511807365e+01
3.824304220709353785e+01 3.027751720811344693e+00 8.003976500720264653e+01
3.574802217535544457e+01 6.714996933508333044e+00 8.874240046011989591e+01
3.956411135639944376e+01 3.622109814183227527e+00 9.862721792862139125e+01
3.494427613543687983e+01 1.200715672345660323e+01 5.894973964723226878e+00
3.332454988064063883e+01 1.087445759864182904e+01 1.424719042102412558e+01
3.248852597989443325e+01 1.449930953384449595e+01 1.864323350796822609e+01
3.704355000624052252e+01 1.523722644792823111e+01 2.742338707370117845e+01
3.796082164437513029e+01 1.131433190144553969e+01 3.588950507609934704e+01
3.683241750448331686e+01 1.287065782819615301e+01 4.601991596062448053e+01
3.629697043070622442e+01 1.293812191059300432e+01 5.287906431809496866e+01
3.234480302001060181e+01 9.443021260619810064e+00 5.693904955576749671e+01
3.261012921864225689e+01 1.001329650564617424e+01 6.872556577839004888e+01
3.620653185842280664e+01 8.337252877915425131e+00 7.269659989030941460e+01
3.686164560692152037e+01 8.464650258092499158e+00 8.775070809787943915e+01
3.424197859147848533e+01 1.010246471782244626e+01 9.128525709240220465e+01
3.456608529725595247e+01 1.054915422756272925e+01 9.825378296612406359e+01
3.547663667118714415e+01 1.667461118245119422e+01 2.079698945362284945e+00
3.787056394037203688e+01 2.333135288648658801e+01 9.514750883296695605e+00
3.999095589448451449e+01 1.926269744663051853e+01 1.894237709573934936e+01
3.294817728532129308e+01 2.081937626293883881e+01 2.814840500425541592e+01
3.354964587710329482e+01 1.923496672660789386e+01 3.940035495224118733e+01
3.475182973284967858e+01 1.856294682185291123e+01 4.088168636373835341e+01
3.206451557459999435e+01 1.950199405520672968e+01 4.921276760743178613e+01
3.582502481144603479e+01 1.996336056933285619e+01 5.928329998816215607e+01
3.603479145632413605e+01 2.117322371376856438e+01 7.117713259134296777e+01
3.822581049903843819e+01 1.655029649394020907e+01 7.321898897373164061e+01
3.295819278177120992e+01 2.397433279648215532e+01 8.208919311329123047e+01
3.758658305727288962e+01 1.612602061342176540e+01 9.436010665644285211e+01
3.777616686530744516e+01 1.753418805027697758e+01 9.798683958965101226e+01
3.885690613479037125e+01 2.936701196073081377e+01 9.104168500896236971e-01
3.359206454486719196e+01 3.058660926012606396e+01 1.041217492754069696e+01
3.351254999857994221e+01 2.831859285026053641e+01 1.936841603409892443e+01
3.266112826775956535e+01 2.585950272545385431e+01 2.486914671747554451e+01
3.372788669398490669e+01 2.475190058936455983e+01 3.906721984854919327e+01
3.609631730211820866e+01 2.805882458820618908e+01 4.760267412003678089e+01
3.218174836639133929e+01 2.488290154105265017e+01 5.446756154103940162e+01
3.550335906586938961e+01 3.074529905536642715e+01 5.641369315003452556e+01
3.310710609106225633e+01 3.048710834590980667e+01 6.522488376202495886e+01
3.353926269637534574e+01 2.759532061270254388e+01 7.901695012689582143e+01
3.640125844944959965e+01 3.085988292436323377e+01 8.283795967057510268e+01
3.429294605751677949e+01 2.623294228000511197e+01 9.210245632033559104e+01
3.879239593567327660e+01 2.609299830857704094e+01 9.757466625202116006e+01
3.989673665449354445e+01 3.416623765860634876e+01 4.571196461546112033e+00
3.248656320148821663e+01 3.478106417288721985e+01 1.043475581934332297e+01
3.778329027059359646e+01 3.620225185124529332e+01 2.097261547269287973e+01
3.924257802101804060e+01 3.444989580653972894e+01 2.918158038229460161e+01
3.592299662686770745e+01 3.531635106747784647e+01 3.917544273780359276e+01
3.789946431854410491e+01 3.271262954556016922e+01 4.307619276975987788e+01
3.457014987180707521e+01 3.307882081816975273e+01 5.042372469773464161e+01
3.601821458503413709e+01 3.699912620997063328e+01 5.977803675663329130e+01
3.494755704232728277e+01 3.424019692708504436e+01 6.815041509809614695e+01
3.966270504682569964e+01 3.468396713916882845e+01 7.475983198480034275e+01
3.805927821514807619e+01 3.694923072726006552e+01 8.115113806294964149e+01
3.587578215547372196e+01 3.860117889348542519e+01 8.852377518000402290e+01
3.999353079099184072e+01 3.266039947847667690e+01 9.756927407236842953e+01
3.503518804530324360e+01 4.202184656061066192e+01 6.541458699941271604e+00
3.450783735930732377e+01 4.611130276623320867e+01 1.238166524999184759e+01
3.530215547647161145e+01 4.549137439508535863e+01 2.170564724483126184e+01
3.847253717011373197e+01 4.284898779581699557e+01 2.945207989826347372e+01
3.872409704618754489e+01 4.313993498148971639e+01 3.573708930703057973e+01
3.707652903222926710e+01 4.574450834957146839e+01 4.532022660808310377e+01
3.915713992297099821e+01 4.106540935161658723e+01 5.326616077069550670e+01
3.221427550534136230e+01 4.626243369659525229e+01 6.044667382761523555e+01
3.847440467212111770e+01 4.278728875025316825e+01 6.488357051261185404e+01
3.512605903723001433e+01 4.419154070251178013e+01 7.483115857650714986e+01
3.431807678366033088e+01 4.428252589493495606e+01 8.173511113298749819e+01
3.235614920916483328e+01 4.787381179111891072e+01 9.147633704658554166e+01
3.561008100029404488e+01 4.316512866853636865e+01 9.833314968087385921e+01
3.985765097561800729e+01 4.989560987658894220e+01 4.958422239254256070e+00
3.593135555534110637e+01 5.360824506020369995e+01 1.091672109724004613e+01
3.949708365066217652e+01 5.130003037194720150e+01 1.959620331769118451e+01
3.502402058811928498e+01 4.987595263318221583e+01 2.604363087445459257e+01
3.503901977648173727e+01 5.282313297445143974e+01 3.930341101103824997e+01
3.421988682801182335e+01 5.081316667979463375e+01 4.633908209745635531e+01
3.460218351316402163e+01 5.311758947893642357e+01 5.169505909613023675e+01
3.412116796922332185e+01 5.092073386121052891e+01 6.389187553523291285e+01
3.719771909222610162e+01 5.071060565014576582e+01 6.610094759286926092e+01
3.291132192785474331e+01 4.900740634151312491e+01 7.543185516853921513e+01
3.365753631300434279e+01 4.878416312763693696e+01 8.242190285944720074e+01
3.654711203412576026e+01 5.027106350728981710e+01 9.472299994865774408e+01
3.223643380036153161e+01 5.247688078123620414e+01 9.999019846695770752e+01
3.781294222320874354e+01 5.709253769899944331e+01 1.752457079821034824e+00
3.809948714999033115e+01 5.905868500514181108e+01 8.634011022380217781e+00
3.495381457327828656e+01 5.644632790641666986e+01 1.915404926890190751e+01
3.540820032277196816e+01 5.789044051361018717e+01 2.876239129786161186e+01
3.333268577922036968e+01 5.689088161231710927e+01 3.602004400902850989e+01
3.583991465434380785e+01 6.036891241859881063e+01 4.626835535711267511e+01
3.284150922924800398e+01 6.395291114987954018e+01 5.136562891366953920e+01
3.453872612385227114e+01 5.809646655685652661e+01 5.756779779945125597e+01
3.440092524416397168e+01 5.734421482316432872e+01 7.162274779436684469e+01
3.223147343687911359e+01 5.655726264506402146e+01 7.564179024412734975e+01
3.745787295675814477e+01 5.751597692212099133e+01 8.614520546584661531e+01
3.637068526690892156e+01 6.373717255780568536e+01 9.489075176810527523e+01
3.387597111558877572e+01 6.264923798770523433e+01 9.843898179638487989e+01
3.694142419273914868e+01 7.112596266955605984e+01 4.966130253483158619e+00
3.948934863214810065e+01 6.495368880932912248e+01 1.511078608162025283e+01
3.416228784295647358e+01 6.974410337164023588e+01 2.055046649828374683e+01
3.274235814701976466e+01 6.550597079594642480e+01 2.455475440029365330e+01
3.481629236304225827e+01 6.750989919964560215e+01 3.554533960584794983e+01
3.796950347017520500e+01 6.743328181496673324e+01 4.536776779785793678e+01
3.223577078983116451e+01 7.144162259275327642e+01 5.227808640468549584e+01
3.866323999514664678e+01 6.711774423584790839e+01 5.829626058847793502e+01
3.484339649434016195e+01 7.148021821178279822e+01 7.198006486364377565e+01
3.993198761396077145e+01 7.151481553169676886e+01 7.782596514024217527e+01
3.434561192774631166e+01 7.118969705271719306e+01 8.760450107133765130e+01
3.211273691748306192e+01 6.726052897457667257e+01 9.065505132878601557e+01
3.667182523771459302e+01 6.422579267567785166e+01 9.727248076750250050e+01
3.694982842165479298e+01 7.630883188813264439e+01 3.629442783599279299e+00
3.939880184231108018e+01 7.463728934738603016e+01 1.474233955527265394e+01
3.335862799051648864e+01 7.857752335483507977e+01 2.055126077659507189e+01
3.213438911872717085e+01 7.809540937896764490e+01 2.450900160326917643e+01
3.714038228372788097e+01 7.897598703296525002e+01 3.570168302663642379e+01
3.429235603550967681e+01 7.496368671454085586e+01 4.718062203036098623e+01
3.411799927420663181e+01 7.602734892526216015e+01 4.988732169705853892e+01
3.405107028433594962e+01 7.889935254187405178e+01 6.032237033276315685e+01
3.850284113108975959e+01 7.234061524718570979e+01 6.987703827364265408e+01
3.458199950969949299e+01 7.478770185262058590e+01 7.707635410703308310e+01
3.667396575294462480e+01 7.833312316929267638e+01 8.229999905965097184e+01
3.368211114153105967e+01 7.734518430577041670e+01 9.344002559907778505e+01
3.358238850470858239e+01 7.620018117661727786e+01 9.651794325272499009e+01
3.949779565166936379e+01 8.380675044884469571e+01 1.666770129151173840e+00
3.557943455548905121e+01 8.752582088212720635e+01 9.680944568413940132e+00
3.522606158593506365e+01 8.435704477596490847e+01 2.102810094012307474e+01
3.611068598433352150e+01 8.076180127017615007e+01 2.693055374337933827e+01
3.703878304795359355e+01 8.471521277651716275e+01 3.666071476180686517e+01
3.316121062993487811e+01 8.361272213596396341e+01 4.590337176974882283e+01
3.705872529823432870e+01 8.098784835397042059e+01 5.510566674701203738e+01
3.625878016615177302e+01 8.132206036728972265e+01 5.814673562756890135e+01
3.658745188523457870e+01 8.792253086904048587e+01 6.976374638242499771e+01
3.439014136470667182e+01 8.026512653969884070e+01 7.212049970087632289e+01
3.751626545780859345e+01 8.757617697894687581e+01 8.095821164248523871e+01
3.334234129243530731e+01 8.584876183837948815e+01 9.181869190361294386e+01
3.586676558644391832e+01 8.104714331887532808e+01 9.796023946155102635e+01
3.474758319723779465e+01 9.567433575111448363e+01 4.088834860834145601e+00
3.519512597435328871e+01 9.271729302795984040e+01 1.183389923850709557e+01
3.279723429010079627e+01 9.398977222083522065e+01 2.112620593596144047e+01
3.251541027272981665e+01 9.098251258502837402e+01 3.044280534366708935e+01
3.243970879477144109e+01 9.468149594954890347e+01 3.222844372083712017e+01
3.726522631830485466e+01 8.950930782499136740e+01 4.202066579464999307e+01
3.935127476846583505e+01 8.864059757069510681e+01 5.360838413385583578e+01
3.485482272127426029e+01 9.579865276235015870e+01 6.324513871949001498e+01
3.336459989941234738e+01 8.919355158416183826e+01 6.974829023043481868e+01
3.706103421059570024e+01 9.083200249214613109e+01 7.410771511250190713e+01
3.205015208655813552e+01 9.045861682384811786e+01 8.749649895616418860e+01
3.482308610081560118e+01 9.115247554045041056e+01 9.463398984376854628e+01
3.338595900873450262e+01 9.169350915397075141e+01 9.971010425984574965e+01
3.755833519117389585e+01 9.650482579825481366e+01 2.043967209890340531e+00
3.458771740782460569e+01 9.639777844860665823e+01 1.359399985829756830e+01
3.986227170390379371e+01 9.985844900820373482e+01 1.720375396641052745e+01
3.950785339667501006e+01 9.693253351477163449e+01 2.819202254357052695e+01
3.219183229085040665e+01 9.734742795910680968e+01 3.838714369930703896e+01
3.545492554268268037e+01 9.809226381549247265e+01 4.038679906484655646e+01
3.205551830860423479e+01 9.975860626371471085e+01 4.807127648926638841e+01
3.252501890740207813e+01 9.720947380303113050e+01 5.803473448853607408e+01
3.655941233984263761e+01 9.963773352901161218e+01 6.856779156810287645e+01
3.633728432136371822e+01 9.991926879098194547e+01 7.834130951389039410e+01
3.360902593151408979e+01 9.866768433373437119e+01 8.296391747968546326e+01
3.421454739439215587e+01 9.812278458680410154e+01 9.270908609758534169e+01
3.463465722104855615e+01 9.789844395781177866e+01 9.685351962364143219e+01
4.117225323620148458e+01 5.170307885270098325e+00 5.356838401715691589e+00
4.799121755456626914e+01 6.690043890019225614e+00 1.427038682626532484e+01
4.256611769864012729e+01 5.269633761981163289e+00 1.861678421971028996e+01
4.220118092648733921e+01 6.035511724695719060e+00 2.539820767526598289e+01
4.325595707064800166e+01 5.603939654029477246e+00 3.860909751021448244e+01
4.477134062122537728e+01 5.511808682854846708e+00 4.237802842232629530e+01
4.064852080132789069e+01 1.092246892030634964e+00 5.562615450226696368e+01
4.720062179996752150e+01 3.138647703437269509e+00 5.701855370620690167e+01
4.392476119210299856e+01 4.278721104914639639e+00 6.722498439530662040e+01
4.436268848745281446e+01 6.100209712085824520e+00 7.289166216781389096e+01
4.597302004250292384e+01 7.505222858429960731e+00 8.162928243722680577e+01
4.008100915469501047e+01 4.088763585915589083e-01 9.256221725342041395e+01
4.652853618066301777e+01 7.697810994727493750e+00 9.720665391594697269e+01
4.016613670696013116e+01 1.065580849887543025e+01 3.749695433543231982e+00
4.538226453824895401e+01 1.156755541514706920e+01 1.375301335292485838e+01
4.638765812249550180e+01 1.043084396809416070e+01 2.216503983795685784e+01
4.160927304886414646e+01 8.778287258765782752e+00 2.896033233511075977e+01
4.291906417125651529e+01 1.160645487644211826e+01 3.514398463250913096e+01
4.760700678475651415e+01 1.023657781298876657e+01 4.660195379586855324e+01
4.563932827229194800e+01 9.588428627806145244e+00 5.539647415952509135e+01
4.739695766497978013e+01 1.440612003054708623e+01 5.971098534611367370e+01
4.256728811344095931e+01 1.053976360550263891e+01 7.133401417927143484e+01
4.387670438580943966e+01 9.769798524023642017e+00 7.532228578766157057e+01
4.353416983088030889e+01 1.054585536446521843e+01 8.264312922206569567e+01
4.241979624428103790e+01 9.403147924375698352e+00 9.097689677167133482e+01
4.126636407478945046e+01 1.460248473485421528e+01 9.878669391151228751e+01
4.393339253858520266e+01 1.850042565717717835e+01 4.045262015009997825e+00
4.549552293623612087e+01 1.796782316093711174e+01 1.175782554247688516e+01
4.243287196338349787e+01 1.769660989867174550e+01 1.614314959718500120e+01
4.608152344594603989e+01 1.846431304234925719e+01 3.192183431282761319e+01
4.114368156685461742e+01 2.222199927362119709e+01 3.913087400625211387e+01
4.021678638600600664e+01 1.963043332585988665e+01 4.233635302330651484e+01
4.624111696719685938e+01 1.915956954885065144e+01 5.204219036723052483e+01
4.441216665098561833e+01 1.607458832509658464e+01 6.153965799555049188e+01
4.777912796675573048e+01 1.828387650193565861e+01 6.446762408083372975e+01
4.330869365348486610e+01 1.765292829238423877e+01 7.558259820735928258e+01
4.365603609169613719e+01 2.075483956828844256e+01 8.035860443934851105e+01
4.404875658757136137e+01 1.640087433271241224e+01 8.962009009238565227e+01
4.497519418971048566e+01 1.644482749615399086e+01 9.617000678412382797e+01
4.568714593705080063e+01 2.966698397077556137e+01 6.061054945579080311e+00
4.134768438583257222e+01 2.475362460587322744e+01 1.416529127164350932e+01
4.096770539685146417e+01 3.061102938651119132e+01 2.043193051288339035e+01
4.204513746054963264e+01 3.040844250871507271e+01 2.923008604581380609e+01
4.523322690325458950e+01 3.177472979619980720e+01 3.306252238726151660e+01
4.291774327926982835e+01 3.014413771155873789e+01 4.656011517034976777e+01
4.627753399872954532e+01 3.022861324189953791e+01 5.105899170023531042e+01
4.621215857372795455e+01 3.157915889201604642e+01 6.026619611001968480e+01
4.735036548396774947e+01 2.804586445707874987e+01 7.073714388973806422e+01
4.143947721893486147e+01 2.987292186999387411e+01 7.960102923272852138e+01
4.603236000734910505e+01 2.430821249223967939e+01 8.310061118300228600e+01
4.508548646810805138e+01 2.957260257446363738e+01 9.399694808180385053e+01
4.378507418888480629e+01 3.046857461492826857e+01 9.795894421125608176e+01
4.539247195301783222e+01 3.646627939855157052e+01 4.998075510226474449e+00
4.271763014818835558e+01 3.583291065729012104e+01 1.103080044019947259e+01
4.517437587087241724e+01 3.597137524323485991e+01 2.198201560717136971e+01
4.059255783244127969e+01 3.904347176203836511e+01 2.952019934184846406e+01
4.798544056217262010e+01 3.543914765309231996e+01 3.455417217220689707e+01
4.150305569113255899e+01 3.357526090480737224e+01 4.541002598258383216e+01
4.036844881738760193e+01 3.255436843643967393e+01 5.334511104980933283e+01
4.206282985219568360e+01 3.267421925549505346e+01 5.931987529100224776e+01
4.722351837807785557e+01 3.974641451346094811e+01 6.423771584307738181e+01
4.689385331331803286e+01 3.452538764019874407e+01 7.240294542689501611e+01
4.553846176973348747e+01 3.649961471801991308e+01 8.321158121389473195e+01
4.631583037038817707e+01 3.723101074337855465e+01 9.570600049559573108e+01
4.297968353191217261e+01 3.827785002270136516e+01 9.784444620549263050e+01
4.327082784364865375e+01 4.198060708827851784e+01 5.864125360131589026e+00
4.031615787287643116e+01 4.413014328554706367e+01 9.588936553299365784e+00
4.508758780873365168e+01 4.599553335493027362e+01 1.764007238144432677e+01
4.132672646529425009e+01 4.116447923809327847e+01 3.018240936106560923e+01
4.065626800233876992e+01 4.543138236659888207e+01 3.307476608272508400e+01
4.151296108805208007e+01 4.572562577862599653e+01 4.183207594570179566e+01
4.734238857735469708e+01 4.250777052953056057e+01 5.106305260768905185e+01
4.571470899456082293e+01 4.677686152943986997e+01 5.704360093315224844e+01
4.071054284548565505e+01 4.609212339756057020e+01 6.464756052450930213e+01
4.181593938527730359e+01 4.216652712018771609e+01 7.933206401346807013e+01
4.546233101941879085e+01 4.178769122762208355e+01 8.685437174046570874e+01
4.407678866680709007e+01 4.303998248915294766e+01 9.089680103070236328e+01
4.232293095646168979e+01 4.150566246090332356e+01 9.772071903650220293e+01
4.435696863037833282e+01 5.230290318548389905e+01 6.373887413135537194e+00
4.322157554731996498e+01 5.453944720822983072e+01 1.114081103329831457e+01
4.661038040567988361e+01 5.223319442914656463e+01 1.925301368133345292e+01
4.391667242081811651e+01 5.089094120785991038e+01 3.071190998243809034e+01
4.673336756854546081e+01 5.508292335177152665e+01 3.391476175899591539e+01
4.091192384860494968e+01 5.106241142022478385e+01 4.131332417446302685e+01
4.675462324967982397e+01 4.957756404706281472e+01 5.597826371518755906e+01
4.597917876318453523e+01 5.270244768117762391e+01 6.317222924982208809e+01
4.077217525565619383e+01 5.275869879712809762e+01 7.065578595924922922e+01
4.175043646434987465e+01 5.446678358454310853e+01 7.805150038150048886e+01
4.159636319962809381e+01 5.424860502623343450e+01 8.574557683861955582e+01
4.796187351305653834e+01 5.263560029686181707e+01 9.553775694152390940e+01
4.416242420689119541e+01 4.804405368297096857e+01 9.927145240966032702e+01
4.305157743682319449e+01 5.668343260296391151e+01 2.575913188246048424e+00
4.230028504011427515e+01 5.663330666930374235e+01 1.472866027978203540e+01
4.681008038609998323e+01 6.125022585480650861e+01 1.710432143827498308e+01
4.352134258673260092e+01 5.993866393083637689e+01 3.107119517893443117e+01
4.592578527153510493e+01 5.744818241492630762e+01 3.954518948582411753e+01
4.128583065008221098e+01 6.140715865001315876e+01 4.299404737937953058e+01
4.046984195208904822e+01 5.714707301361075764e+01 5.565774106388126086e+01
4.796405421862488794e+01 6.249677207428629799e+01 5.997560460039606767e+01
4.657631001190346609e+01 5.983588314225425364e+01 6.497094720863152872e+01
4.518375897918631523e+01 5.733996163679528024e+01 7.539373904104168389e+01
4.155155259125782408e+01 5.942691746096613059e+01 8.549642723719712478e+01
4.235954474018972604e+01 5.792359738118047119e+01 9.373593347414634991e+01
4.659299414579876242e+01 5.980202950740068957e+01 9.810355524913603631e+01
