2.507388955504107386e+01 3.369093435343953047e+01 2.316549629521708198e+01
4.791881781754901937e+01 3.061005555139115586e+01 3.531453394736173834e+01
3.093807648161295276e+01 6.080263539153943952e+01 2.845011910832955238e+01
2.588427305676124135e+01 5.148062660898664689e+01 1.384339731148841501e+01
4.651429591052704637e+01 3.225887374929017426e+01 3.006480391163088939e+01
4.635187114686222287e+01 4.567805682739554385e+01 2.094647687913784395e+01
2.545895963773361359e+01 6.570486442047364051e+01 2.508488354183943159e+01
4.954860350060560137e+01 3.889974843787751269e+01 2.184774276566660944e+01
2.032639163796722315e+01 6.596699522546474270e+01 1.972020475374609561e+01
4.842683231500677721e+01 6.970475467449413998e+01 1.795395073039600575e+01
4.978129221955278894e+01 3.153211058430876079e+01 1.630450823054502152e+01
2.405038224288793458e+01 4.617372909439589534e+01 3.072979225614112053e+01
2.690194045654605759e+01 5.263004472180239190e+01 1.494230116721051438e+01
4.359522279409419099e+01 3.898207515353947628e+01 1.535462078054828972e+01
2.983998856453782267e+01 3.824062176593437101e+01 3.072079651509945819e+01
2.044479700305081948e+01 5.087190370775552850e+01 3.896059237678188936e+01
3.648088785798927347e+01 4.472815493241238016e+01 2.985365796376103731e+01
2.991155263746727400e+01 6.199553615138289331e+01 2.769353802647089680e+01
3.349671492549352081e+01 4.453319958209208806e+01 2.794357811280541171e+01
4.822782481116635012e+01 3.860712180505920799e+01 3.914520386982503908e+01
4.654753712418294498e+01 6.559200322492490898e+01 3.358596008424608215e+01
4.439263725973001584e+01 6.303158633769806585e+01 2.844991704885629957e+01
3.522792709522440902e+01 4.719005989365492582e+01 3.320529025914653687e+01
4.604293010974400602e+01 4.521466231150908044e+01 2.649430342502069280e+01
3.858166728024050940e+01 5.128087271327632379e+01 1.771006948945169768e+01
2.344017227477380771e+01 5.176791287349057313e+01 2.525513070247876612e+01
2.821953553854464758e+01 4.043087068726489974e+01 3.867838839909172322e+01
4.850071976670936635e+01 6.874104808862347227e+01 3.801877815914106407e+01
4.753387144617756377e+01 3.457259493267369521e+01 2.861115657215040997e+01
2.550640970438229260e+01 6.779460753289774289e+01 3.713114471463568833e+01
2.797846924057647655e+01 6.213120843227134316e+01 1.735845373916716738e+01
2.143765670752181407e+01 3.628713086795323051e+01 2.462795329299214586e+01
2.406245723377383783e+01 4.959474426310551820e+01 1.876785976188707394e+01
2.895384577576128748e+01 6.506932671350260478e+01 2.564884755580576581e+01
2.428217048638344622e+01 3.585514874855540057e+01 1.175741785768486025e+01
4.015119715533499800e+01 3.475655384287418315e+01 1.544016074710298270e+01
2.878708843807201845e+01 5.749049378983139036e+01 3.897895559722550729e+01
2.216785629009302383e+01 5.253592142878197535e+01 2.828510737757866522e+01
4.809062633762404460e+01 6.934111004918706556e+01 2.046414156541175444e+01
2.971833461328551351e+01 4.775739672708089500e+01 2.135245305725376141e+01
2.788960375451404872e+01 4.547755947183896552e+01 3.943875391087699711e+01
2.567460439952003881e+01 3.368159840255763271e+01 2.162534651287584353e+01
4.070000884128874930e+01 3.114501737921320057e+01 3.191558812402277567e+01
3.097171768624185262e+01 6.021650141703936754e+01 2.964370033335185184e+01
4.251218977983792513e+01 6.102229416931699291e+01 1.579959426580765935e+01
3.745105032295816017e+01 3.314843676244844062e+01 1.403431722226542533e+01
2.921063267467444291e+01 4.497105749452720858e+01 3.611225818175110902e+01
3.908689377642838991e+01 4.356429024337116118e+01 1.646700273670382941e+01
2.098346333630012239e+01 6.208961521787637139e+01 2.695441212131327546e+01
2.497581391484180457e+01 6.847314898040069409e+01 1.167380494033887217e+01
2.774291033706964882e+01 5.408608495081661260e+01 3.021799391902268894e+01
4.300442880465678286e+01 4.274166261770315600e+01 3.136069661043238099e+01
3.435997935899749223e+01 4.908818033614477372e+01 1.460526614189971895e+01
3.473132025873445627e+01 6.581133072559461539e+01 1.142600306695071843e+01
3.585244049661947230e+01 6.585845755842953508e+01 1.195696893367371771e+01
3.155958807553894729e+01 3.023792804789027144e+01 2.263217164860662578e+01
2.112808275245595624e+01 5.954000365018389118e+01 3.591211932732549883e+01
3.505403017387182985e+01 4.654936353877119615e+01 1.045040345462343545e+01
4.458347169401617549e+01 4.907352830341964278e+01 1.299747773735530032e+01
3.472500234909170302e+01 6.050618048822470030e+01 3.259990652922368781e+01
2.033837984318361691e+01 3.233359215456979285e+01 3.224098432462334785e+01
4.778654851543154791e+01 3.237129379741996615e+01 1.750435786221233769e+01
4.639578316989582163e+01 6.554200408312816251e+01 3.803359096428731334e+01
2.754234215605241332e+01 3.222927350636334154e+01 3.744751029134290832e+01
2.692735026668198373e+01 6.206349805636022410e+01 3.853177236596850719e+01
2.288202027849374076e+01 3.109345073636083967e+01 1.324864630941778820e+01
2.435858570317455118e+01 6.113851083563045563e+01 3.550975151614886016e+01
4.144483872661987789e+01 4.769141062891058880e+01 3.680038846215818182e+01
2.366615042885326048e+01 6.415749640062750814e+01 2.616955573891558373e+01
3.775122478364211531e+01 4.953726622415987890e+01 1.110842345790304897e+01
4.037704292154921148e+01 4.553287308992355520e+01 3.309334973525437107e+01
3.524349901489226511e+01 6.434248908907808584e+01 1.360101189388748288e+01
4.383164155597420120e+01 4.532196286890170711e+01 2.173035402686487316e+01
4.367756243866174515e+01 4.828720200374082339e+01 3.040820881377297269e+01
3.848570749831746696e+01 3.525675237337926404e+01 3.095615009508243531e+01
4.603914095530083728e+01 6.026865344541620573e+01 3.032393429308286414e+01
4.948161478662601809e+01 5.032067640586951285e+01 3.845613442445565511e+01
3.857202478353198671e+01 3.326884507296213656e+01 1.300127601630514107e+01
4.999460430327623328e+01 6.012251695941608176e+01 3.462761420097769616e+01
2.996628298930667000e+01 5.214472782171390008e+01 1.940269290126213164e+01
3.561847986343997974e+01 3.083850337738874714e+01 2.676687499045541330e+01
3.515593665245405930e+01 5.009835024605624199e+01 3.026632742733183079e+01
3.720069014743963010e+01 4.894382430895427660e+01 2.267612033457456633e+01
3.314059103144696650e+01 4.136286787610374915e+01 1.872329984805347536e+01
3.452156993154068232e+01 4.887119595704871955e+01 3.892931740156018350e+01
3.261507167285133590e+01 4.867893586861049471e+01 1.307465877554699851e+01
2.574069568189659662e+01 4.341882015434080699e+01 2.124506356824857889e+01
3.815205373381165543e+01 5.507703543589855855e+01 1.811075705109882605e+01
3.582550322506021701e+01 6.364091691817994700e+01 1.553454198328987346e+01
4.023285357635112547e+01 3.171795908132730801e+01 2.345275974340437131e+01
2.306194677200509346e+01 6.184273198313047004e+01 1.408940847408589647e+01
2.275454986189237161e+01 4.049210153742232166e+01 2.536461709783334229e+01
3.538317462555441750e+01 6.437265952695477722e+01 1.617667171735913811e+01
3.806273419076971720e+01 6.056774334537434612e+01 2.573836794626738111e+01
3.432295002411067486e+01 5.318636828289295693e+01 1.178588173607493239e+01
2.747224967041256249e+01 5.589153967097393405e+01 3.819916236201687099e+01
4.606570172158492937e+01 3.627763656003293136e+01 1.038032219009066282e+01
2.777145700242304827e+01 3.372175708027182850e+01 2.607694112751249804e+01
3.855796597155310934e+01 6.498834780013930867e+01 3.923217801971177465e+01
4.905445935609691333e+01 3.113467759474015750e+01 2.486561135382407883e+01
4.540022008663756736e+01 6.517672303576179615e+01 1.742104085550015924e+01
4.278949697714492828e+01 5.918815376011519191e+01 1.044749081083309328e+01
2.556011377307396515e+01 6.747560051383366897e+01 2.935376762638465209e+01
2.435277948411052051e+01 6.809765613210035440e+01 2.923575335132432329e+01
3.869605736255364548e+01 6.466164354496703481e+01 2.032490439821068406e+01
2.175651981009769642e+01 5.756547113577895658e+01 3.905504241808164068e+01
2.337427839680916719e+01 5.173490730377547919e+01 3.383363456994820950e+01
4.632768823241736555e+01 6.626965480444202683e+01 2.493718132050972613e+01
2.881903089237226467e+01 3.509571193688979207e+01 2.784565668637387503e+01
2.768706630778282474e+01 6.764410358167695847e+01 1.403626955550022437e+01
4.885938139526240320e+01 3.638757661901362894e+01 2.762090548857993966e+01
2.665107848362420384e+01 4.672024250935218248e+01 2.712990800696244520e+01
3.300903396865037820e+01 5.876393908082323492e+01 3.626680078347751390e+01
4.160481338015264896e+01 6.275491484730265768e+01 3.050660157242889170e+01
4.781707845485991015e+01 3.831079966329691189e+01 3.652274780092490403e+01
3.677636705848860288e+01 6.375301803061908856e+01 1.779832366955859158e+01
3.021259282645750588e+01 6.297874076763756079e+01 1.707744117990716148e+01
3.597135407336823221e+01 3.327784204353066144e+01 3.712743384220669185e+01
3.795738542639421098e+01 6.022917735520974247e+01 1.070672638477496719e+01
3.325028181268786653e+01 5.760828442323256837e+01 2.745093032663722354e+01
3.752519495755473145e+01 3.328703937335772878e+01 2.992224121127301473e+01
2.376949294416984415e+01 6.191531765434825729e+01 2.015876047617957312e+01
3.989727330664809557e+01 3.107696332301772557e+01 2.903710355557690548e+01
3.210486397175836970e+01 4.201465887688483747e+01 1.542701283795259215e+01
2.014371304008605179e+01 4.710083061056327125e+01 2.099152214921120674e+01
2.061453411378683143e+01 5.454622254323675179e+01 3.060070715848556233e+01
2.715880945534328106e+01 6.570370288898126887e+01 3.113488136343530854e+01
4.413967038007995569e+01 5.803848220664088586e+01 3.666391528063697081e+01
4.143516548288246071e+01 6.005632156752804462e+01 2.962550312623045556e+01
2.977462694283727984e+01 4.504099010468990372e+01 2.669638572396859644e+01
4.450000995641561730e+01 4.050109197586292709e+01 1.909813027967262045e+01
3.044376860265707307e+01 4.910995488737724202e+01 1.785339304609971833e+01
4.858979730858303725e+01 4.686788768224899115e+01 2.379828561519235919e+01
2.610607517418255341e+01 4.486000823226471113e+01 3.078055707343633074e+01
4.634457176811201862e+01 5.915946223757559608e+01 1.517104126183065382e+01
4.450054078223456600e+01 3.370023151730831046e+01 2.647066602779207756e+01
3.612306548720467703e+01 5.889136446678079295e+01 3.444455029491793852e+01
3.072658828130028041e+01 6.453251840657259208e+01 3.098004682817697741e+01
2.163888269081179061e+01 6.626525181068710424e+01 3.612201933124018183e+01
4.471217610078712568e+01 6.035910573284316882e+01 3.532296902927259907e+01
4.649807250898654587e+01 4.973952215214553974e+01 1.428627492025389500e+01
3.256531442956862321e+01 6.271010046568593310e+01 2.972440669681413183e+01
2.475562997386878550e+01 5.965537042778542798e+01 3.561943318823995952e+01
3.386892010567471800e+01 5.106180061508338497e+01 2.907068455305710231e+01
3.085878590761813456e+01 4.339366394675444383e+01 3.328267974214764990e+01
4.689558664662229148e+01 4.193066046606326580e+01 1.094182106824284162e+01
4.577682917010040597e+01 3.535691721237422769e+01 1.945969631576114267e+01
4.077298713213684067e+01 3.052919871854118483e+01 3.822042897331736810e+01
4.747612013803595232e+01 4.310866978324767729e+01 2.631528100910741585e+01
2.844744010419072566e+01 3.266039079459498140e+01 1.193261666300461421e+01
2.201127544347350096e+01 4.879538583017806275e+01 3.366837528372299460e+01
3.116169678850372193e+01 5.746495552894763392e+01 2.216251772474229398e+01
3.236194198037112102e+01 4.880179226462757214e+01 3.179706077481687743e+01
3.630738228639081910e+01 4.257737733371640587e+01 2.650782460919722894e+01
2.522543395953784540e+01 5.407310722606374043e+01 2.870265453162092939e+01
4.516090686717226532e+01 6.560773079522218154e+01 2.953355937217803273e+01
4.925409589098773466e+01 6.875318405128271593e+01 3.382845164757362966e+01
4.190621902416889810e+01 3.547814723139553195e+01 1.570991973187343405e+01
3.072611107028219024e+01 5.925166302206496027e+01 2.485021567510259288e+01
4.164903032056055565e+01 6.017933871064931139e+01 3.427314273265784550e+01
4.755281565090946572e+01 5.057302616457026545e+01 2.884411918480431680e+01
3.540925513983018647e+01 3.795433696759239695e+01 3.228653096241850307e+01
3.918925703737626520e+01 6.782211145281128495e+01 1.723596173939969844e+01
3.391533356951080691e+01 3.367907258920133273e+01 1.793583517825163653e+01
2.077510970940781476e+01 6.915985026819713255e+01 1.793979960045765054e+01
4.264346968774594870e+01 3.029961747749052492e+01 2.055287217865731009e+01
3.233270323071365482e+01 6.209879667869223852e+01 1.975852410991548780e+01
4.505023434829700335e+01 5.621115752826307954e+01 3.949017743374593437e+01
4.792454139178305894e+01 3.394129207688831684e+01 2.374765686557940114e+01
3.546504280894811245e+01 6.275353129051418932e+01 1.547645988901212810e+01
3.946292424648024877e+01 4.428170996119970226e+01 3.004298303389042601e+01
2.274662196527287250e+01 5.585632138466964136e+01 3.863753156664810007e+01
2.669795433778044824e+01 6.103976058367990021e+01 1.324630565008817484e+01
2.056409164148833568e+01 6.878278788140579536e+01 1.400982695476934481e+01
4.427850757729780895e+01 3.807788028071581721e+01 2.694749988185092349e+01
4.649693236505095939e+01 6.367543914676148376e+01 2.359705005050001247e+01
4.832076762238227730e+01 4.712968117626042641e+01 2.139838723855880431e+01
2.801610139925624310e+01 3.907900880298168289e+01 1.966726666633729081e+01
3.436532284418891692e+01 4.102438150840622910e+01 2.860961325971801372e+01
2.026251127404637842e+01 5.396378488867018319e+01 3.320423473533924152e+01
4.033458630624154750e+01 5.988448165754805785e+01 3.010042613247582111e+01
3.971477304182232615e+01 3.406954666861109615e+01 3.481537232356202338e+01
3.085362889260091634e+01 6.011354948729056247e+01 2.205822094118224896e+01
2.535280477811067001e+01 5.610926279156236518e+01 2.528162757817651141e+01
4.570814452492615487e+01 6.022630729487809020e+01 3.477874344704703446e+01
4.945997154298296294e+01 3.317300718146414340e+01 1.191829642473996032e+01
4.284785826927333119e+01 3.748256841139717466e+01 2.385522017001224881e+01
2.652902702703683246e+01 4.370079991079462900e+01 1.610660695059081959e+01
2.623277398198878885e+01 6.924507939261266642e+01 2.188555258986213303e+01
4.179849442692068351e+01 4.144418079741220140e+01 2.729997652192520619e+01
4.535906879583269102e+01 4.089174772199789487e+01 3.145595655779661470e+01
3.533086080223753811e+01 6.655961625072015408e+01 2.807287937739036821e+01
4.933671840837144629e+01 4.576111433932644701e+01 1.268633179271555456e+01
3.891055336550982702e+01 3.110669140662947285e+01 1.767661981655608372e+01
3.076700123881975912e+01 4.262828197672915564e+01 1.105064014777958903e+01
3.780999053874374027e+01 4.395556970281753451e+01 3.626029212078134378e+01
4.006304250191870153e+01 6.036738062050280718e+01 2.685537899526584482e+01
3.110332330662696165e+01 4.182037538894894624e+01 1.706699723951188474e+01
2.661671199301546409e+01 4.078807563346196474e+01 1.374950599640386528e+01
4.381726262763329061e+01 3.836340507541004996e+01 3.171517873953858668e+01
3.015629580558074707e+01 3.479524911987792279e+01 2.979439273096907570e+01
4.814629783092259885e+01 4.164968251355178097e+01 3.639993423131880945e+01
4.046022930433586140e+01 5.313658825284317544e+01 1.897245035073697039e+01
2.565781194975863500e+01 4.693244332926932572e+01 3.935559008312350215e+01
2.757434775187814679e+01 6.042008263952447322e+01 3.566998314238335155e+01
4.478070049372693262e+01 6.158684855439516781e+01 3.212682044733779918e+01
2.040743975789375142e+01 4.925346081483628069e+01 1.453914180488544616e+01
2.265229397109256126e+01 6.412914517232732692e+01 3.548041019866843016e+01
2.804725607940941146e+01 3.806824332171726866e+01 2.494030577186839892e+01
4.577064694524355559e+01 3.475421301101479798e+01 3.397652450495881737e+01
3.888093935452481276e+01 6.896870200472881152e+01 2.064716761842264603e+01
3.647604063508887151e+01 3.391496140089235212e+01 2.685241865770501235e+01
4.572408723897591898e+01 4.304848230858411284e+01 1.346021873582624551e+01
4.857587144558498693e+01 5.748600285875464522e+01 3.554778893755763391e+01
3.491055439302952834e+01 5.993853252264113252e+01 2.702997942568384815e+01
4.820689774305611763e+01 3.442595337663050259e+01 1.633580840650304822e+01
3.667022943820674641e+01 6.073530151865102766e+01 1.393073645451077169e+01
2.410516761929148899e+01 3.284752554467454644e+01 1.629395302241147903e+01
4.000182510849879236e+01 6.346922735830256102e+01 2.508117684319897123e+01
4.612094221631443247e+01 6.512264423912674260e+01 2.314882460621968718e+01
2.174668044162383396e+01 5.555600405474648795e+01 1.362056913395934821e+01
3.541727985641706056e+01 6.951684781034904859e+01 1.875180026670550859e+01
2.013296519673443186e+01 4.786987763582899191e+01 1.672923258472783914e+01
2.144485625872257728e+01 4.350705380784914666e+01 1.603058067057327918e+01
2.303705964168381115e+01 5.934004530628992313e+01 1.785124037332009905e+01
3.745132053881960132e+01 6.514878804997452733e+01 1.763314510502755894e+01
2.078768059078235453e+01 4.081916029202040619e+01 1.956903998999227667e+01
3.558827990372535055e+01 5.352563668542747877e+01 2.197139830559182627e+01
2.629716057007389551e+01 5.040313865554131212e+01 3.327281242406531447e+01
2.120592153705322858e+01 3.665462668547602476e+01 1.822554839263705873e+01
3.007376643125875404e+01 4.591577917311921198e+01 3.126086851217941742e+01
2.466481281991492835e+01 3.167893544845900067e+01 2.577662338326944891e+01
3.601637417648552031e+01 6.317986063311301592e+01 3.777420637226056499e+01
3.477180524724300170e+01 3.442083255687315102e+01 1.860359999335851100e+01
4.253603267039590463e+01 4.511982699012436626e+01 3.674777199074807754e+01
3.497122519450485356e+01 6.246518171820345344e+01 1.208607496762024169e+01
4.685857913453135382e+01 6.901361762224466645e+01 1.105706453967389891e+01
4.574850671897968368e+01 6.084218650818332463e+01 1.843307993133354117e+01
2.638122431701519588e+01 4.387026416874613943e+01 3.377274393482274917e+01
2.305381475302910133e+01 6.865548341645451558e+01 3.961526757707083135e+01
3.240076806590536052e+01 4.190616578288708638e+01 1.109381759882844776e+01
4.601450431587493739e+01 3.844380949229997668e+01 3.707741016724729377e+01
3.576626550415326022e+01 5.662327740726169623e+01 1.830062992061253269e+01
3.931220981774571044e+01 6.554351367551882390e+01 3.149312533096486533e+01
4.721977532812313427e+01 6.594817930309660881e+01 1.838530373620906744e+01
3.324344402656562636e+01 4.540086015254356511e+01 1.280967224499780599e+01
3.315457873032675451e+01 3.396628817852283788e+01 2.453520996912770258e+01
3.284937344324224995e+01 4.368390473936432272e+01 2.825687465515915875e+01
2.643183721388153629e+01 6.367110511319891231e+01 3.712402662025665734e+01
3.731200123522086187e+01 6.190850902400136846e+01 3.244945082648993662e+01
3.294236084587694791e+01 6.764083894001301189e+01 3.608518134420270229e+01
3.282197899453436207e+01 3.104228250487038920e+01 3.272014004717931357e+01
4.526419780199588416e+01 4.342498002993703210e+01 2.902870954438815332e+01
4.994359524468598721e+01 5.117755388457158006e+01 1.171147011940106886e+01
2.367250949396338910e+01 6.627257854521056402e+01 2.620286425689757337e+01
3.567968928740930323e+01 3.023759826406103812e+01 2.070468701788606936e+01
3.022259527079278385e+01 5.393895110901900836e+01 1.252047172230048488e+01
3.937752906877434356e+01 4.423848807958695772e+01 3.916114854185676109e+01
3.137158529799030049e+01 3.433464677563192424e+01 1.800940316550880738e+01
3.035980649599979841e+01 4.148854645365642568e+01 3.100700497626192131e+01
2.203796303084467567e+01 4.439963329159849792e+01 3.265201434530894176e+01
3.881981232118354797e+01 5.359015848370592749e+01 3.746915479977971586e+01
3.887254270535856193e+01 4.934200848524440630e+01 2.680612589951143576e+01
3.748091126219230773e+01 5.173005350279955650e+01 2.807755945157352073e+01
2.119568328416493586e+01 6.060381871627756567e+01 1.978777994540388363e+01
4.282418627346113738e+01 5.422773062802658472e+01 3.967832035130085444e+01
2.452061881311672309e+01 5.261282728311319801e+01 3.166257200705218011e+01
2.742010305177191754e+01 5.068366180282966127e+01 3.918044665562712936e+01
3.150324206295536200e+01 3.677904607773866275e+01 3.841685816033767509e+01
2.772979424786304747e+01 6.970652145730220184e+01 2.646409789511690036e+01
2.062969692781073761e+01 4.518235459599909376e+01 2.962573911689437978e+01
4.146852117696092677e+01 6.364994170578671628e+01 2.025084345218147774e+01
2.783664248910640993e+01 4.479099335794610681e+01 2.202037442108094467e+01
3.143095323769480132e+01 4.991868006142111369e+01 3.088624165634819008e+01
4.150722873363285004e+01 6.448939022072303828e+01 1.686676813574376865e+01
4.962020875122033203e+01 5.616203929539582873e+01 1.954206606117172385e+01
3.349110445317511164e+01 6.040236306431518187e+01 1.058294217257541625e+01
2.515713623659063813e+01 5.154000742598473295e+01 3.684488241282598864e+01
3.076759146541484569e+01 3.224029045005592309e+01 3.602474610306239100e+01
3.133053936171781118e+01 5.681157238769367268e+01 2.734813292814328634e+01
2.752576334984552275e+01 5.541209729872722534e+01 3.022900797004696116e+01
2.853591082842592641e+01 4.379821535398180288e+01 3.823992970777905498e+01
3.791236126015596142e+01 3.061473389383860777e+01 2.833728814454922329e+01
4.869509197911560250e+01 4.328987159373773608e+01 1.925094201321551068e+01
4.121055321766284862e+01 6.426211311872931731e+01 1.133774997927137207e+01
4.521395172292472608e+01 4.938388731004648946e+01 1.342992774840828751e+01
3.561765035279093894e+01 4.044773138751976660e+01 3.454116643869413394e+01
4.696793066828003305e+01 3.099781035441346688e+01 1.110005419077603150e+01
2.113863034161560606e+01 3.193648501621006019e+01 3.607400719335049644e+01
3.903287929157135494e+01 6.113831165994562156e+01 2.731216844884515282e+01
4.731084430549780961e+01 3.340054926365937149e+01 3.191842864813042624e+01
3.081608979674648197e+01 4.661024952262818744e+01 1.645812552972741827e+01
4.940122952168395187e+01 4.457736134920681081e+01 2.468768412435735726e+01
2.839847302162433706e+01 6.288764365183747884e+01 1.366284194048885681e+01
3.527181731876423498e+01 5.774171181233454320e+01 3.547946799151595343e+01
4.462110629663822436e+01 3.044318800957426419e+01 2.302658076955695776e+01
4.812177386834159876e+01 3.002146266066272418e+01 3.466806353914763150e+01
3.709755252278949200e+01 6.737024884527659196e+01 3.866883806535646073e+01
2.394430874243900220e+01 4.923022334706265468e+01 3.995547594565843497e+01
2.949539365661274459e+01 4.709294034395060891e+01 3.437673108831583590e+01
3.618944885743612616e+01 6.999695929209245548e+01 2.871744429376692409e+01
3.679864129825144659e+01 5.236796444936029360e+01 1.815593847403974692e+01
2.790984198660977356e+01 6.478358904509759952e+01 1.020216792931836203e+01
3.781586423067415836e+01 6.542990072085247277e+01 3.563497282507408670e+01
4.274583324677941931e+01 3.669255893528534784e+01 2.872092366364410410e+01
2.499612760782174803e+01 4.924158221916015066e+01 2.015439913284473761e+01
4.228324347961846996e+01 3.234996391818053496e+01 1.932074024008660729e+01
2.018042612506307876e+01 4.803630528308920589e+01 3.585482666370876359e+01
3.880379558373496707e+01 3.882743080254426360e+01 3.927564053772569963e+01
3.863147681680133871e+01 3.932494372134116389e+01 1.734270953105213664e+01
3.362156666007351902e+01 6.214127725307056238e+01 2.197413447286822219e+01
2.594511604862281828e+01 5.138608610364629925e+01 3.829854992132143110e+01
4.710598730422468350e+01 5.870191438837407816e+01 3.666407239915348981e+01
3.289275531274377329e+01 6.455576605841619653e+01 2.032418816677420281e+01
2.592062861698952858e+01 6.287730950317860135e+01 2.468394378373356446e+01
2.709687277452973575e+01 5.051862049814091193e+01 1.987381253459542663e+01
2.101556785833952290e+01 3.667658055967615383e+01 1.463062718189214095e+01
3.550975576521230437e+01 4.069589015393457743e+01 1.853936529581873316e+01
3.230619413242232696e+01 3.633185272398917931e+01 2.723373989390287520e+01
3.046527761934412126e+01 6.297112068209289504e+01 1.194680215362773268e+01
4.305911403520037339e+01 3.113629552268286460e+01 2.514004720490927625e+01
4.362071765780591903e+01 3.671173581592974955e+01 3.664215784068652937e+01
2.323628303753835311e+01 5.990075700392111457e+01 3.893034322333086550e+01
2.678211253450296780e+01 4.938475901966513959e+01 3.086322868230929473e+01
2.577892086368379765e+01 5.900817680175192237e+01 3.204756858036327571e+01
2.601978376380744606e+01 5.018437209960184475e+01 1.857312987133116167e+01
2.603996836419021221e+01 4.773176122129962096e+01 2.982989263588334694e+01
2.158195435387307981e+01 5.413998295365106372e+01 1.887138842592958099e+01
2.570237869872460479e+01 3.286676949382027857e+01 3.610116030018713218e+01
2.396148878768305934e+01 5.618444995291010713e+01 1.550427949069420563e+01
3.443258426056245725e+01 5.995723499293102066e+01 3.634717063865068098e+01
2.170251881741966926e+01 5.041594014973939863e+01 3.486165386311882486e+01
4.376878812681379571e+01 5.661155757199394145e+01 2.646649437577653785e+01
2.814835950658910591e+01 3.884636500622512756e+01 1.227063747823430262e+01
3.914397135421015150e+01 3.396386757374713028e+01 3.220661285977080013e+01
3.190852665003849253e+01 5.787915449841114679e+01 2.604123546081258311e+01
4.343016692208823315e+01 6.696117917712885514e+01 1.505565242097139844e+01
2.446416135053245355e+01 3.801297337850888880e+01 3.998665103401697252e+01
2.093147309389248178e+01 6.579483222305991319e+01 3.939779872567814323e+01
2.816286556652081075e+01 6.628343158456198125e+01 2.606890366566958406e+01
3.967863987851683305e+01 5.435336949481543911e+01 3.766833286974742379e+01
2.839713749513246199e+01 4.574235118070265571e+01 2.987077100966939369e+01
3.362520099840971000e+01 4.193598525538597954e+01 1.552464351872586690e+01
3.093796721023453955e+01 6.479672645689751675e+01 1.416622419697303137e+01
4.805833482513322252e+01 3.591142313584635559e+01 3.771908442230065361e+01
3.171869536806291023e+01 5.712050219171578647e+01 2.107931135582026272e+01
2.783156605374461634e+01 5.043772398033454607e+01 1.129425909593489941e+01
2.602789858842561443e+01 5.753338785942086986e+01 1.326912625320276717e+01
4.560898065080801445e+01 6.746695832163950968e+01 2.960616651501989338e+01
2.535591044930599480e+01 5.027957327432039136e+01 3.943854826174211325e+01
4.283093984284850109e+01 5.753310316715948147e+01 2.840315839470854797e+01
3.772148367993762008e+01 4.961358240282185506e+01 2.924923969085421049e+01
2.157470971244703861e+01 5.327609169863028882e+01 2.867366429686136797e+01
4.249794141597319452e+01 4.784689811860265252e+01 1.428782321570243319e+01
3.197170832237435789e+01 4.624830830641582224e+01 3.664905487576467635e+01
3.972284010896861872e+01 3.976921525206689267e+01 1.164396792153663540e+01
4.150437349471410897e+01 5.146522626428531311e+01 2.256476682860236593e+01
4.328831358005812291e+01 5.571271814183133131e+01 3.300758927692447742e+01
2.640792400390232686e+01 6.668162751237480279e+01 3.164397661525055838e+01
2.485852219926460904e+01 3.006183333984487760e+01 1.345731771944914712e+01
4.286855617852233280e+01 5.431815502259919981e+01 2.251858148604627274e+01
4.159145822578961571e+01 3.717099598722393949e+01 2.320493287851548203e+01
3.339310821666230567e+01 3.480521585314698996e+01 1.871383779765395516e+01
3.851930197504434972e+01 6.412655362156141337e+01 1.117825475658134060e+01
3.560747513652147234e+01 3.313060071290298936e+01 3.484819523924764439e+01
2.701394288120503262e+01 3.622372541809657776e+01 1.526387146748716717e+01
4.824460989029888225e+01 3.986192081349814487e+01 3.871032749944105689e+01
2.800189867741491412e+01 6.349930758386936702e+01 3.145366007885549564e+01
2.052548489968054568e+01 6.686524163900979545e+01 2.111058754221292233e+01
3.332503063714889890e+01 6.865174260520258542e+01 2.496070664666400063e+01
3.106684861605393166e+01 4.147641584109356216e+01 1.511793986002609813e+01
2.359934900597019336e+01 4.778425479650037744e+01 1.134370655613454737e+01
2.972062701375567428e+01 3.748870978524308839e+01 3.368564193988156319e+01
2.777364891215635723e+01 4.831679469825801476e+01 1.850392085732493896e+01
4.959175540347319355e+01 4.024924901108364139e+01 1.095827088649878789e+01
2.314769965682339503e+01 4.443557145918428830e+01 3.132435270640472424e+01
2.827620386053539647e+01 5.106231178683103877e+01 3.078775385215839577e+01
3.081154720253467261e+01 4.399010972189174851e+01 1.390099021427778681e+01
2.619398325159504282e+01 5.170622915455936663e+01 1.031607956438431728e+01
4.398444476293358463e+01 3.891132871495227619e+01 3.757373741973905368e+01
3.886633618057384609e+01 4.892564363662788196e+01 3.593265413099749139e+01
3.372275862890089826e+01 3.023807313011804965e+01 2.560201039806985079e+01
4.871709997455288033e+01 6.136238432689449240e+01 2.536633139826836114e+01
2.213758272309289765e+01 6.213238219968994969e+01 1.715790972887671728e+01
4.187564146475588700e+01 6.280144077286946924e+01 3.057852436802338403e+01
2.289188084251549782e+01 6.884629714486297303e+01 1.304263182635091489e+01
3.580351750488841844e+01 4.291501549563599127e+01 3.972338023883232694e+01
4.214882453217029479e+01 6.797509107151415719e+01 2.573668256356016570e+01
3.734542339359813923e+01 4.129850971835992368e+01 1.079028942278821290e+01
3.003933992339169379e+01 6.049915304205529765e+01 3.087009835288567672e+01
4.443870976528690875e+01 4.615494599824051392e+01 1.148363572305581926e+01
3.105552960689279729e+01 4.512270859945426338e+01 2.074580644386241346e+01
3.639450905062196995e+01 4.078038242487429699e+01 3.916806249706353071e+01
3.606423355440077216e+01 5.769486991393927156e+01 3.955887160301254823e+01
4.978731435935130634e+01 4.855409128364504312e+01 3.630323453248526278e+01
2.465386257298367667e+01 6.033165885925533445e+01 1.772966733718176613e+01
3.793436491569926261e+01 5.568772340800521903e+01 3.711501468158079575e+01
2.995064958016114787e+01 6.449854389763326878e+01 1.930200199332631072e+01
3.928664862457361551e+01 5.859092032277780504e+01 1.579909828941108429e+01
3.084865108242765785e+01 3.430698923318193749e+01 2.358920670852210222e+01
4.221258114528969685e+01 3.005083517140079152e+01 1.638604345391273398e+01
4.204481970342167330e+01 5.846249858626614326e+01 3.154999583344296710e+01
2.094750479769862395e+01 5.628299524064572523e+01 1.771018392906555761e+01
2.766959440150164085e+01 3.424137733086055846e+01 3.931078156605214247e+01
4.281033043573294350e+01 3.319009744261926897e+01 2.298013159365710578e+01
3.208784280764932362e+01 6.336745837117150160e+01 2.510140364361126331e+01
3.633043195022228389e+01 4.359445474115034358e+01 1.504244033612583920e+01
3.097960445903095206e+01 6.959803711492949674e+01 3.221140207749017037e+01
4.488788060303824068e+01 5.494438893583678407e+01 1.699922670859486118e+01
3.640951253603160609e+01 3.331929147322509976e+01 3.371698453072408341e+01
4.712855077809889792e+01 6.478749709333040130e+01 1.844399583158349287e+01
3.635918319141073596e+01 6.957295502913636653e+01 1.304587052394544600e+01
2.065711894122794945e+01 5.896500008079384969e+01 2.825002224067984002e+01
3.322807454290545337e+01 5.570781345442551213e+01 3.314224430390421361e+01
2.424413031056157308e+01 5.942105686131358055e+01 3.117505713890613706e+01
3.408392395742353642e+01 6.795089083989222445e+01 2.182939094904937605e+01
3.675355180340417149e+01 3.178005714440342899e+01 2.234283411992227286e+01
2.536883899598286618e+01 6.131404835768893236e+01 3.549484317859594995e+01
2.251741803506687134e+01 6.143044137779519787e+01 3.145922126561772103e+01
4.224556581503512120e+01 4.561097508412186130e+01 2.139287892990993001e+01
2.007500232417126540e+01 6.699312205783640195e+01 1.569102603499842274e+01
2.785754617755000595e+01 4.715029215106649474e+01 1.020836336682251400e+01
3.682121820564236003e+01 6.074845600945329238e+01 3.873539625035050449e+01
2.896527488956290952e+01 5.578695057693698800e+01 2.703280387024389242e+01
3.796076710862824655e+01 4.182291330889740522e+01 2.236881509511736610e+01
4.903726013443480269e+01 4.752770643002605055e+01 1.542105841194043592e+01
3.802409392356145190e+01 5.398229088428779932e+01 3.065386952786093389e+01
3.528379225048549017e+01 3.250929351433300241e+01 3.500856713952270383e+01
4.913524371818130021e+01 4.526739276983141735e+01 1.132355449991184670e+01
3.217481658724680216e+01 3.944396042504308753e+01 1.554241259598196834e+01
2.199529846182606363e+01 3.210759078091550833e+01 2.550312964118876025e+01
4.074272643152000484e+01 3.312662783833829394e+01 2.743856302727635210e+01
2.556813342977345371e+01 4.204955533279053270e+01 1.337017601563227309e+01
2.414488919902065689e+01 6.091215614135177958e+01 2.467232509402109741e+01
3.468964720057443429e+01 3.131975732698690962e+01 3.159067924584567777e+01
3.187999343263028251e+01 3.700683620008660313e+01 1.332922371445022236e+01
2.624986326195867292e+01 6.624161900135541714e+01 3.153135119424256416e+01
2.820289980289205545e+01 6.487927238839726840e+01 2.519815102883495683e+01
4.407422401394789091e+01 4.351798097457479031e+01 1.239417404416668411e+01
2.541805791521480984e+01 4.991632509236652027e+01 1.011188458791778544e+01
2.414088287264261012e+01 3.645550280050174763e+01 3.404366390995375014e+01
2.646874291933862722e+01 6.694025000434503170e+01 3.331157774278569406e+01
4.275794096688868251e+01 6.410969294467115276e+01 3.266538950679326092e+01
3.745103499721172824e+01 3.958859967941899072e+01 2.064244915721109663e+01
4.519080143570784713e+01 6.506538209060182965e+01 3.091497561088281287e+01
3.406941040797332221e+01 4.809598476452367066e+01 3.208123827046986065e+01
4.089192558238983111e+01 5.401509652430671338e+01 1.062373501386078090e+01
4.803733408521310366e+01 6.237475668906853343e+01 3.995428109525257554e+01
4.182937029912010729e+01 4.195218321144493956e+01 2.887623288146969713e+01
4.677108689644153827e+01 3.067453528594852230e+01 1.369444027702515498e+01
2.918602402122833084e+01 3.740994020248481178e+01 2.744582275889015932e+01
4.075037536636641988e+01 6.670881344821609105e+01 1.992027136404859178e+01
2.849104758199203502e+01 3.893304158137323157e+01 2.698230054206880624e+01
2.009629487034671058e+01 6.430670501278044071e+01 3.994891582079992531e+01
4.672174059962791404e+01 4.684823000407871518e+01 2.718151621741001733e+01
2.874726897603812148e+01 5.323616549834675737e+01 1.069338549233197533e+01
4.712448063027112255e+01 4.958696122780978044e+01 3.203478149687367704e+01
2.258642808336049868e+01 6.329945080345744657e+01 2.238037535918831011e+01
3.880611430046123900e+01 5.599786395727483068e+01 2.181314573868309381e+01
2.211914443095140825e+01 6.893109289265861150e+01 3.073739356183036264e+01
3.931157720249242971e+01 4.433743698801126953e+01 3.329891789621242992e+01
3.230700757185560690e+01 4.074597803522603812e+01 1.182315234871276211e+01
4.637528129320620707e+01 5.382472234596497884e+01 3.961349001981913176e+01
3.781274420188981367e+01 5.410968626371480639e+01 2.011551156749634828e+01
2.055906150096504703e+01 3.462804218341454998e+01 1.429938367488245987e+01
3.652801440496817520e+01 3.463754625198435377e+01 2.136235449570481748e+01
4.113773346967111166e+01 5.688652312492764906e+01 3.282236540470467645e+01
3.480019252948092401e+01 4.482868917413306065e+01 3.538611997043042834e+01
2.969189586002752890e+01 6.948417660812786778e+01 1.430872645409607635e+01
3.366133010123031255e+01 6.758353311989408496e+01 1.030712227243523138e+01
4.558682745672839332e+01 5.930025307150018676e+01 2.001620152283275544e+01
2.088018295119375978e+01 5.545896503595799487e+01 1.422055619281792360e+01
4.669676540676560705e+01 4.149153923843969238e+01 3.212942352899794685e+01
3.405385420987677492e+01 6.403745804424977450e+01 2.789783857779601917e+01
4.617385386208690790e+01 5.218533265646097163e+01 1.137958458280544605e+01
4.478675640634259025e+01 5.330449721805921115e+01 2.923536905494280447e+01
2.480326378638517681e+01 4.662923831170873967e+01 2.382842017966383352e+01
4.395429867111128885e+01 4.598732936624253398e+01 2.450555919579170450e+01
4.341372215043488580e+01 4.857864323023120789e+01 3.892068656335462151e+01
4.663661302334626413e+01 3.859059066104801872e+01 3.990136281725227008e+01
4.013520860758379172e+01 6.688925200517336123e+01 1.371456269087795121e+01
3.156962918049318745e+01 3.579076470251424524e+01 1.110809915647435986e+01
4.058962397320375715e+01 5.103956240951480794e+01 1.097321244550579777e+01
4.307856250728393377e+01 4.008498227837059602e+01 3.134930747981449173e+01
2.067792508519189454e+01 5.963967156195353425e+01 3.502697778316784394e+01
4.278954020370638744e+01 6.077397881900736820e+01 3.270608198029367486e+01
3.374416207435647408e+01 5.175391181340452817e+01 3.273981322399480831e+01
4.718573701520357844e+01 6.026099132430417171e+01 1.779024694931520401e+01
2.157034575658399689e+01 5.657874139287520165e+01 1.198401555674224461e+01
4.823431012771747106e+01 4.867758739086762887e+01 3.252419118894833616e+01
2.148286325836823352e+01 6.378473126925159420e+01 2.185718846556729034e+01
3.828367613809162862e+01 3.815121347163085375e+01 1.565618553072730634e+01
4.887168156846485090e+01 3.571616319516054716e+01 2.639606750866161278e+01
2.854090568017784335e+01 5.824491068812422156e+01 1.671423819548032341e+01
2.477035353595484679e+01 6.503621676686142905e+01 3.609490652136197752e+01
2.589628674568982092e+01 3.073610937291324419e+01 3.404801428538954156e+01
3.577037334580749217e+01 3.078027696474814334e+01 3.030950495914570553e+01
2.364245742343273804e+01 3.472232798181222080e+01 2.007006404626514495e+01
4.043668486008319718e+01 6.113603255174011508e+01 2.217099106198769931e+01
4.008336876367826562e+01 4.802456037413370638e+01 3.092314658904391678e+01
4.863878839467808746e+01 6.960789941899220423e+01 2.851395752950892515e+01
4.417767017125356688e+01 6.889386005864352569e+01 3.780997159064884983e+01
4.790645636913507843e+01 4.204472928987824787e+01 3.054122589294739853e+01
4.638469287553844822e+01 6.130388601429612550e+01 3.810848763671932460e+01
2.665542126866203887e+01 6.228569394717040808e+01 1.894110798747606950e+01
3.693590773528296722e+01 4.558543720924872389e+01 3.053239310300903497e+01
4.075980168587707198e+01 3.963498243222189643e+01 2.627946895458289589e+01
2.921090609473197119e+01 3.530671464220829137e+01 2.964900153309636366e+01
2.734544195758197205e+01 6.266475928418403640e+01 2.380153116410726000e+01
2.067494125142675898e+01 5.062814161554160819e+01 3.792498171901550563e+01
3.252283453655070389e+01 3.616948733488148093e+01 3.366766349580502293e+01
2.780158213685902524e+01 5.952099425610573036e+01 1.918911349980938397e+01
3.307627951173631686e+01 5.765160508348620283e+01 1.938621278508230006e+01
4.124805120098228173e+01 3.311905913427401060e+01 3.103475588015236397e+01
2.825318320495765434e+01 6.293166182772397121e+01 2.449504394419621534e+01
4.539484367143978005e+01 6.211752907891153797e+01 1.316164569060079792e+01
2.123914250914268464e+01 3.789440745882311035e+01 1.751467759017738501e+01
2.743944407158191012e+01 6.643777756791074296e+01 3.996411431412971638e+01
3.541273539383862357e+01 3.601376093037332993e+01 2.297361376229886076e+01
4.475986214271754449e+01 4.671368733495479830e+01 3.968608051900970679e+01
3.657412061372854595e+01 6.907683850620885835e+01 2.341471546752485011e+01
2.734412729970300404e+01 3.031516662796781603e+01 2.423988617770564957e+01
3.848345189585917581e+01 6.646400867942168134e+01 1.084475294436531101e+01
3.123599631540969668e+01 5.959536822496749409e+01 3.735766482046369674e+01
4.191967313260527561e+01 3.527252238056202316e+01 1.362906567281234516e+01
3.176652818129033307e+01 3.147948785557754903e+01 3.328750846253200990e+01
4.344112365327137582e+01 5.722805020130778786e+01 1.841708732118014780e+01
3.523917646510160750e+01 6.383836003817029336e+01 3.850985175745423561e+01
2.159527265380237893e+01 5.826827409458651630e+01 3.590508062699787928e+01
4.373979346547240965e+01 5.325120431583728475e+01 1.636599860765527481e+01
3.723659091354851824e+01 6.322309215288078121e+01 3.390068269958599245e+01
4.732202803549164827e+01 3.575292421270519583e+01 2.630136364089600320e+01
3.406981182475875869e+01 3.654182462942220155e+01 3.064583684335456937e+01
3.332329281267929844e+01 4.430229212624708879e+01 1.160908291960054406e+01
2.397719540096243662e+01 4.000582594005312131e+01 2.627057864359070294e+01
3.241915997454108833e+01 5.500880479924852295e+01 2.063732593730228615e+01
4.697758448428042044e+01 4.077700683270406756e+01 2.296941759150105256e+01
4.956246011967945009e+01 5.238308971981536644e+01 1.205972506489296769e+01
3.219212676675456919e+01 4.278305520511553084e+01 3.725494223114205994e+01
3.092361838287761699e+01 3.923862326540598389e+01 3.222306811147132066e+01
4.767643007522950427e+01 3.724151602785965309e+01 1.032198601685733230e+01
4.892479223727482918e+01 4.508722896443931916e+01 2.959317410435995299e+01
2.443103499945199530e+01 5.968801016775158530e+01 2.523674961542204898e+01
3.747559754838543000e+01 6.934770765534030090e+01 2.136502030585154444e+01
3.889881736407282631e+01 6.951277085451101811e+01 2.815919162574736134e+01
2.389791483371005398e+01 6.836063027654941493e+01 1.046670427756797395e+01
2.079471779692190125e+01 4.641919402054372767e+01 3.188941662102106989e+01
3.156783258986801854e+01 5.283756080061724703e+01 1.844281042723752151e+01
4.348072251746937411e+01 6.255260293467006250e+01 2.517943314922882436e+01
4.303755876191954854e+01 6.629902093273160801e+01 1.807914443444089869e+01
3.559003234653155090e+01 6.408064970761188306e+01 1.125253990258107173e+01
3.051736330966887678e+01 3.745877123258107844e+01 1.825107624274480145e+01
3.933622852746827903e+01 5.888837533280327818e+01 2.739263970840942619e+01
3.988639474580688216e+01 4.625878755284368538e+01 2.926490620111389518e+01
2.642421612863694591e+01 6.626635560751616083e+01 3.914398192940699062e+01
2.244757025814041640e+01 3.436587888997119222e+01 2.228807708934331799e+01
4.566941246706686286e+01 3.762669022903726557e+01 3.161793072595302334e+01
2.650539205088752226e+01 6.209313158721704440e+01 3.078091425667497560e+01
3.200625679598858397e+01 5.790051634574830075e+01 2.886872132230937638e+01
4.803441975531688968e+01 6.912287664830313361e+01 3.989551241143372806e+01
2.864005193591660969e+01 3.305875486107281347e+01 1.142734079001834857e+01
4.109583209668832637e+01 5.544801911982531095e+01 3.988782538132746680e+01
2.340240110466474022e+01 4.755717553315656687e+01 1.459377944655070358e+01
3.161836826570123549e+01 5.587080779526751684e+01 2.080906680705193423e+01
3.957514458696351767e+01 5.994787486904885299e+01 2.611612820853560635e+01
4.547256333440736853e+01 3.704620133858121989e+01 2.069127004493367394e+01
4.188755151614991235e+01 5.904567441830457142e+01 3.930435915292002136e+01
2.775093621375056685e+01 5.345035463002331966e+01 2.483256786022191065e+01
4.654405566832740959e+01 5.524857387396807695e+01 1.981279134721713930e+01
2.344356769092966886e+01 5.404763243150736685e+01 2.256955558809328011e+01
2.237930105610953646e+01 4.411847654929481877e+01 1.799947670569511615e+01
3.787948899063901109e+01 5.019920440919446492e+01 1.774944851977073768e+01
2.974995260319159840e+01 5.135349525406254401e+01 3.098957992017752261e+01
4.987561296472264871e+01 6.113516128776544178e+01 1.697991211413131296e+01
2.952030362681967546e+01 6.919616592761958884e+01 1.614212771367942167e+01
2.135883041999752052e+01 5.609563179939463140e+01 3.301859194711569501e+01
3.809388695184019724e+01 6.203574322010788933e+01 1.504267219105135389e+01
4.888581063226398271e+01 5.746165489243185931e+01 3.179563203661751558e+01
4.307890059949852457e+01 3.334801165612745422e+01 1.879477515080468919e+01
4.998300566086179231e+01 6.342361037355470899e+01 1.021528543684355839e+01
3.897981893292153899e+01 6.663971064774870001e+01 3.536910968257064525e+01
2.928030598378922278e+01 4.327735416077763375e+01 3.010721090017445079e+01
3.247137842680844244e+01 4.202015387254548529e+01 1.786828539251007442e+01
3.347378165417832463e+01 3.873273777426351216e+01 1.985321340991293937e+01
3.020936611354389001e+01 5.693511408096632209e+01 3.409045802387480251e+01
4.222609333266642295e+01 5.030753544720235482e+01 2.889021213339767513e+01
3.155330566621162802e+01 5.599282533052318911e+01 1.219939512919344615e+01
3.383489790530465058e+01 4.443135598433749323e+01 3.865745783354363851e+01
4.989681854051733723e+01 5.735902474345547830e+01 1.357133002063367577e+01
4.946605138127235790e+01 3.006506939745041507e+01 1.265400212992345885e+01
3.613232946703367787e+01 5.310119750528665605e+01 3.307422948706290100e+01
2.692927132486850894e+01 4.856253597637669372e+01 2.088396540061269135e+01
3.814969842035736747e+01 4.388821773109757629e+01 1.064687734034171029e+01
3.293692133882481698e+01 3.082654926266572559e+01 2.415470298657346149e+01
3.686217836411236703e+01 6.490001490314431010e+01 2.437782124700455100e+01
3.555075102663116837e+01 4.386287405190860511e+01 1.695477269877115845e+01
3.273854450626617307e+01 6.891195604112846240e+01 2.640917030794822651e+01
2.127998958767125615e+01 5.228965715546159032e+01 1.447757649014650383e+01
2.438461192409283740e+01 5.255960448505510385e+01 3.717785621345266378e+01
4.470417200690440751e+01 6.745610799355075926e+01 2.484158166842704674e+01
2.700138842096730940e+01 4.639578792616535452e+01 1.110963222547072249e+01
4.178127171840525733e+01 5.817265293536769377e+01 2.888079105330866270e+01
2.746726895178032279e+01 6.481165560951467342e+01 3.367854259648576232e+01
4.655166202409082388e+01 5.052591517938174093e+01 3.535920420108108431e+01
2.638808416804763368e+01 4.153319756097585724e+01 2.028033100049168169e+01
2.003504902196455717e+01 6.643631482526555487e+01 3.283234273064746844e+01
4.908384731186347949e+01 4.329720793673521939e+01 1.892647860972292051e+01
4.289264136162360330e+01 5.233550766024905698e+01 2.927872930612265279e+01
2.945569171712932999e+01 3.562588965514937911e+01 2.845653716698225466e+01
3.316089726368337409e+01 5.719689323798705516e+01 2.256920811411426797e+01
3.488940361363511755e+01 3.232695553897275431e+01 2.213752094507746193e+01
2.077144137931941259e+01 4.110855603259611968e+01 2.086928703243538052e+01
4.125422533151002824e+01 4.320161525440344974e+01 3.454174076774868496e+01
4.272181886479550172e+01 5.026845983949203855e+01 2.969496414753837144e+01
2.475580301985256426e+01 3.814668176334299687e+01 3.019344812549866930e+01
3.403472707669282471e+01 6.575974326921195257e+01 3.461490675274051654e+01
4.617352803907100878e+01 6.775790687905430332e+01 2.011142553360318885e+01
4.502109428251556977e+01 6.901993778939720414e+01 2.082621205343733095e+01
2.612353678383296796e+01 3.625761741330303067e+01 1.453657138456232545e+01
2.637366835377254048e+01 4.201233609739638553e+01 1.852434601492960553e+01
3.878412132321334838e+01 5.893494276090917339e+01 1.372401252465421706e+01
4.224027203373075423e+01 3.438258966174419129e+01 1.432317644553189240e+01
4.431522583684072458e+01 6.995101201613451281e+01 3.810499615371042381e+01
3.022640375934632218e+01 3.100222630028546433e+01 1.705708628753088618e+01
4.331104069509227372e+01 5.344482393883053106e+01 2.990637224142531636e+01
4.436047075829121411e+01 4.209542594331857401e+01 3.218658770500509547e+01
3.733214177517477594e+01 4.641497921742941912e+01 3.252060096801838540e+01
4.238542384778881456e+01 6.513190696661609991e+01 1.392817988033858612e+01
3.216016912375546610e+01 3.192984986057984997e+01 2.168707137120037132e+01
4.263781262656485183e+01 5.874483562310324203e+01 3.531123901842910584e+01
4.068222082481918989e+01 4.045848073390880728e+01 3.541454390979441769e+01
4.525766292467024243e+01 5.791224240556276470e+01 3.392420119141304724e+01
2.139631589329988870e+01 5.290666831453608410e+01 1.211190116092278934e+01
2.296395361135265034e+01 3.085701561518974145e+01 1.346887866166646219e+01
2.068466018252807004e+01 3.395701842566085560e+01 2.305432952198561836e+01
4.606166423524334164e+01 4.312763983475245055e+01 3.505654325119763826e+01
2.599640527077160357e+01 4.837774333540285454e+01 1.097589463693114986e+01
3.716551391061335607e+01 5.676889845741895613e+01 2.264619824517716395e+01
4.910026839206395977e+01 4.675988394592117459e+01 2.335281161022068019e+01
3.434592896673846951e+01 6.880088745904399161e+01 1.252191396630804121e+01
