4.544668607816759476e+01 4.390090309077316988e+01 4.372271702521744174e+01
4.866243881770844126e+01 4.499262822517453486e+01 4.547567145777401265e+01
5.527977881434081553e+01 4.869416343188888163e+01 4.489880236159110893e+01
4.627970399308685501e+01 5.026975402238743840e+01 4.570855345158450689e+01
4.900210497875954019e+01 4.695557761164984356e+01 5.827549798371020273e+01
4.163773766093677864e+01 4.987814534618078000e+01 5.487227773301167844e+01
5.542987435165851196e+01 4.736498352148468172e+01 5.336674931308034076e+01
4.528670526094232684e+01 4.870214168431780166e+01 4.404212958242060694e+01
5.868295510801947756e+01 4.980004770970042216e+01 5.312341014554474583e+01
4.353656052283205469e+01 5.274327181293867284e+01 5.342489264753614009e+01
5.339612786888974227e+01 5.750959063700062757e+01 5.051870355951383118e+01
4.925396826034234010e+01 5.277726514122662849e+01 4.429018260222979109e+01
4.883482225851408742e+01 4.619714049476259277e+01 4.519902161534500351e+01
5.263445888333836109e+01 4.748015846299797005e+01 5.895359047042980905e+01
5.396131517641947539e+01 4.992830356361618271e+01 5.427664633083961832e+01
4.471650273806167775e+01 4.869503175214560997e+01 4.784312317201596443e+01
5.674364754523365661e+01 5.358261445532919254e+01 4.841839282181413751e+01
4.831376286743910242e+01 5.163808886941728815e+01 4.974412315512001470e+01
5.099945741399773169e+01 4.393388053627692358e+01 5.608704547039830146e+01
5.628822974196057061e+01 5.296594797509769137e+01 5.090180045573320200e+01
4.548188203930128282e+01 4.626241142027490838e+01 4.869283837487962074e+01
5.274525581180730427e+01 5.391645906792877696e+01 4.375228491636647021e+01
5.113961558227993720e+01 5.420723060916557756e+01 4.340433735497054357e+01
5.441693375476689454e+01 4.568612127223244102e+01 5.164328735493528200e+01
4.396706588188597919e+01 4.426179786034330732e+01 4.860014411263446021e+01
5.472419066719499625e+01 5.301444774916534186e+01 4.472317113081911799e+01
4.207149726469098283e+01 4.519546926871350934e+01 5.281105967858739092e+01
5.357932326225790831e+01 4.526528656060239086e+01 5.472395529917597656e+01
5.750466399934590811e+01 5.340742943368820050e+01 5.198796483668341750e+01
4.108862552320684358e+01 4.638517585660898135e+01 4.872127074096358257e+01
4.738630755131291039e+01 4.938793423142987393e+01 5.800618183641801551e+01
5.353803792749166490e+01 5.036629458005074866e+01 5.161123967743793628e+01
4.670735901722969174e+01 5.286737250305613145e+01 5.488961944824966110e+01
4.786379608975976652e+01 5.474936228959439433e+01 4.603313758298245517e+01
5.232562787561771955e+01 4.373785387409676417e+01 4.412451368087323544e+01
5.521801809927045213e+01 5.387449142077988995e+01 5.446194942385286453e+01
5.049556545544121633e+01 4.454691137938944223e+01 4.901566297266472816e+01
4.447788040699436607e+01 4.559130601941879490e+01 5.488562211652595835e+01
4.843240918718417731e+01 4.373001558846601000e+01 4.478205697539195995e+01
4.162757178622159415e+01 5.370611217115436631e+01 4.615675417668580849e+01
4.275764759369143775e+01 4.641176580571521981e+01 4.436715147933780656e+01
5.534238877911378296e+01 4.542769375023684120e+01 5.447273704764334923e+01
4.515220204111930258e+01 5.319797753590921019e+01 4.761893232799153708e+01
4.573144322928884975e+01 5.268363029960407573e+01 4.213298533142225466e+01
5.077734356346633859e+01 5.134268878218102117e+01 4.381374285397656365e+01
5.632555828760129657e+01 5.551876247918912100e+01 5.467457676413793877e+01
4.730563540085075402e+01 4.792835390940876295e+01 5.441619371668869576e+01
4.734370512787473473e+01 4.691044703441016139e+01 4.938727609940605134e+01
5.838752510530724749e+01 4.864101144444055080e+01 4.745758779805760952e+01
4.625555404726966202e+01 5.781915179754775380e+01 5.294750776331245135e+01
4.865967117203362591e+01 4.663486265238883277e+01 4.715260890854454345e+01
5.479968462094861081e+01 4.915623131577688554e+01 5.065171942396032989e+01
4.136889149186882264e+01 4.983398676863544097e+01 4.854514447559888879e+01
5.075446086158414971e+01 4.243874928027746307e+01 5.622108159786501602e+01
5.374552674601019930e+01 5.669490492669849857e+01 4.510305876409081804e+01
4.393874369482620779e+01 4.626258332613719659e+01 4.992033460175960613e+01
4.755559114775450524e+01 5.364988793737502704e+01 5.033476571958016876e+01
4.375358641171715135e+01 5.305939035236561807e+01 5.333993128090487090e+01
5.151061263810492363e+01 4.502152234553820165e+01 4.749589809604761825e+01
5.030013258209778826e+01 4.744428009365199017e+01 4.340098686019597807e+01
4.280023515507822651e+01 4.591508008799969076e+01 4.692078752334771963e+01
5.666682348699845306e+01 4.988598356982081583e+01 4.424044047087946296e+01
5.335987150125849610e+01 4.546218598116087151e+01 5.745064006105107524e+01
5.538985210361492051e+01 4.792453516137727831e+01 4.763816640339351238e+01
4.914032141913601492e+01 5.652044596713038516e+01 5.352392780539776140e+01
5.480638997150293079e+01 5.000375108951951120e+01 4.266074714170028415e+01
4.210683915752113649e+01 4.993598366738821426e+01 5.248936328198126233e+01
4.228061818966865104e+01 5.491285476136127386e+01 4.688905569984560628e+01
5.040794855793318163e+01 5.262279250206436387e+01 4.959572757328118087e+01
5.406163946000740594e+01 4.691342199656614298e+01 5.672004694392335011e+01
4.554177123900973356e+01 4.694131970332758641e+01 4.918231076156813941e+01
5.638900982423227504e+01 4.641387122995018899e+01 4.884809265123482191e+01
4.993892414943653790e+01 5.705377529206113962e+01 5.266734493504128523e+01
4.827735591594657194e+01 5.290490280786276145e+01 4.710373016380088274e+01
4.685525888041206599e+01 5.271673689454200229e+01 5.687611901594290487e+01
5.039097792110741381e+01 4.310083289063253176e+01 4.860257274997567833e+01
5.459550514850820235e+01 4.330092931355849828e+01 5.420631410175516862e+01
4.528253177782269034e+01 5.119741748972032980e+01 4.371353091788524381e+01
5.145063890302278509e+01 5.934101474106861929e+01 4.869770859468827950e+01
4.649279517073831869e+01 4.569298477835792482e+01 4.836267043943482946e+01
5.783728803849956535e+01 4.998196875916123361e+01 4.822669374270527243e+01
4.936265390419949028e+01 5.531776643076990752e+01 5.814746632170818685e+01
4.291845849222997344e+01 4.818096498154476137e+01 5.374174178090834886e+01
4.951958046032554961e+01 4.366813576014951792e+01 5.093351858945819544e+01
5.349149460967414882e+01 5.253721016773747721e+01 4.749882783891028737e+01
5.303320273585860889e+01 5.206409897043018020e+01 4.145247252770769819e+01
4.882294391127841493e+01 4.849921224577878576e+01 4.460668932656128050e+01
5.310934076644172563e+01 5.106564912983504456e+01 4.869297530954722930e+01
5.188691422716071600e+01 4.462310564453576234e+01 4.515221376929615360e+01
5.759014556642168969e+01 4.608196918982822865e+01 5.047445408443649484e+01
4.616625140453001563e+01 4.662919191963396059e+01 5.746408420572767284e+01
5.781800921007687322e+01 4.975359480086653008e+01 5.441113938837750652e+01
5.448556196162311949e+01 4.944053383364600762e+01 4.133115418847977907e+01
4.689041520544318331e+01 5.106529567735570652e+01 5.589084916663252756e+01
4.187326824602263287e+01 4.513577142084801608e+01 5.088863139323789397e+01
5.082651716040535916e+01 4.615036790052138116e+01 5.179633756681462842e+01
4.253857676080475869e+01 5.413191646317734040e+01 4.973945633055601689e+01
5.789473998888300343e+01 4.860207011320927251e+01 4.465481156732545998e+01
5.071680486538978982e+01 5.215635495242077724e+01 5.952110328852015897e+01
5.102973152742504936e+01 4.732304114583897103e+01 4.143544599328821221e+01
5.574578701520860591e+01 5.176194443961473723e+01 5.061058178827102694e+01
5.464375971170925794e+01 5.065249670869450682e+01 4.689462815721854128e+01
4.305187135355007655e+01 5.242992193574615101e+01 5.184052341260796481e+01
5.345034802921965422e+01 5.260069133194215851e+01 4.260026113688577709e+01
5.179184748727276855e+01 4.805762686995835509e+01 5.542443947834239992e+01
5.706715856180429824e+01 5.447145115751222733e+01 5.361528981757670920e+01
4.413418794034650006e+01 5.388092818669898065e+01 5.284573276427879307e+01
5.621827759178158601e+01 5.261379826412334637e+01 5.729893110591473260e+01
5.653148926880628977e+01 4.860838017158267377e+01 5.537686545023927920e+01
4.945895529285704129e+01 5.093366376117447203e+01 4.769891195465093858e+01
5.191105570946096037e+01 4.612011371801586535e+01 4.608558686458889042e+01
4.820690013516598782e+01 5.599520180611974496e+01 4.581096895774111744e+01
4.988969138558599781e+01 5.116294776503755770e+01 4.296002617546347579e+01
5.031625209910410490e+01 4.130113825838785147e+01 4.645365359530886451e+01
5.133785924740980988e+01 4.772586964753961070e+01 4.394281270602727574e+01
5.148724481557107424e+01 4.356415750435399303e+01 5.245415065743680572e+01
4.720202625072467129e+01 5.915871001816720565e+01 4.916107095620210998e+01
5.148547455683824836e+01 5.472176781638034271e+01 5.632532843599219774e+01
4.738352190517073126e+01 5.162010657419059356e+01 4.924317270131194135e+01
5.468306102461615126e+01 4.421920815156232010e+01 4.790955243198402513e+01
5.344969294332548060e+01 4.157975273866869514e+01 5.169807663675923948e+01
5.267626378027778600e+01 4.698815033857749768e+01 4.465516969922818902e+01
5.250285357147104293e+01 4.933280305945303468e+01 4.266792906105924033e+01
5.457697691640100857e+01 5.439581974087257521e+01 4.703992465771916898e+01
5.134474545660893341e+01 4.374177128300316042e+01 5.399724688706297826e+01
5.073371322044687304e+01 4.354148517778010330e+01 5.480178653598146354e+01
4.044932733232728594e+01 4.996754582353092644e+01 4.783597229417796370e+01
4.446323157830180861e+01 4.522592470462137015e+01 5.133380972651108465e+01
5.321131682487584413e+01 4.266195679993016654e+01 5.271214481537690233e+01
5.388378817264273124e+01 5.774313245121074090e+01 5.263689861086452737e+01
5.325863579184020580e+01 5.185174342167976391e+01 4.270292449866306583e+01
5.219273371542085727e+01 5.257196916803983555e+01 4.320894297701973841e+01
4.422670295066251356e+01 5.554464280636160822e+01 4.602699202292406255e+01
5.215707222378564012e+01 4.996762131502785564e+01 5.904536424072400536e+01
4.096119751417241872e+01 5.051454767540740676e+01 5.219201977305996110e+01
5.649902269320302395e+01 4.936788316729143844e+01 5.626267542683689271e+01
4.758044722025002216e+01 4.755268733382075652e+01 4.747519886232242925e+01
4.672157796861245060e+01 4.612386209336629861e+01 4.624713476707773907e+01
5.167842069527019788e+01 5.522909553782741199e+01 4.268478056635619566e+01
5.185903803714988669e+01 4.349412975821713445e+01 5.536054993357800669e+01
4.499648781761486305e+01 4.551895750817826780e+01 4.655121305190621683e+01
5.476184093071665160e+01 5.488352967333781862e+01 5.497834699744957732e+01
4.162291669573985331e+01 4.715302980744695560e+01 5.104745397232818505e+01
4.742964193715130961e+01 5.061532662512031777e+01 5.145743703223676135e+01
5.445771986578426294e+01 4.232167713074343851e+01 5.442717744772757271e+01
5.533680243545483535e+01 4.301595628995822551e+01 5.159335905943085265e+01
5.023035329261402637e+01 5.282944557308626088e+01 5.879911126048057213e+01
4.460806425390869379e+01 4.897007142137636038e+01 4.174064289943029138e+01
4.270609733816853293e+01 5.226167568083243964e+01 5.637097361949076912e+01
5.089255329805191508e+01 5.555042677908933513e+01 5.806721390268813110e+01
5.334167702043514936e+01 5.248364847644668885e+01 4.509179236433260485e+01
5.043473063791945776e+01 4.441029665060657550e+01 4.239578967753759997e+01
5.442192507656354650e+01 4.561385233422594609e+01 4.876321842950432739e+01
4.548871103613619482e+01 4.770866452209691033e+01 5.624368864452026173e+01
4.604379847005483839e+01 4.706895726892442866e+01 4.825456298615826967e+01
4.399872869601637859e+01 5.373637952062514245e+01 4.584950423440275813e+01
4.300191519267306717e+01 5.276106673719478124e+01 5.544664726766915663e+01
4.524713431859422741e+01 4.477762502717460791e+01 5.073283654250862895e+01
4.946241329095341399e+01 4.685622333038070764e+01 4.993851528725392797e+01
5.218842251953373790e+01 5.758088711486650624e+01 5.267643481749265533e+01
5.514276531906829604e+01 4.602580512410068536e+01 4.358437790117915966e+01
4.601506747525518648e+01 5.547762034268760800e+01 4.901503761861223296e+01
5.724691581495521575e+01 4.542956755515872658e+01 5.279235179515323750e+01
5.163750562147559720e+01 5.698789318255548153e+01 5.673564479413476391e+01
4.550168407393103820e+01 5.196544063303619509e+01 5.242793182821906584e+01
4.430515428586823390e+01 4.335890984013002480e+01 4.805827858684885712e+01
4.512537855001917109e+01 5.364526953315411362e+01 5.037811245680656924e+01
5.332135200092674410e+01 4.776564904610008000e+01 4.179443903902600255e+01
5.177192871953891995e+01 5.323364481998574860e+01 5.350804777747415386e+01
5.129476312580806052e+01 4.253911744061793598e+01 5.476584380840868960e+01
5.358887132678755449e+01 4.590453226253150376e+01 4.231949976615602083e+01
5.903483789189504449e+01 4.731225582046609901e+01 5.198386741472899075e+01
5.927390579688255201e+01 4.800594964122866060e+01 4.832639431954009979e+01
5.691623616546554132e+01 5.193395246458032233e+01 4.659279231802795351e+01
4.991159841940538655e+01 4.806025566217112299e+01 5.136183465084298660e+01
4.951248405047296330e+01 5.524482673691104395e+01 4.693702872677781812e+01
4.819734561495788938e+01 5.253188827080960266e+01 4.109742843875176277e+01
5.792650765069284802e+01 5.177331654810378581e+01 4.512413079439001251e+01
4.169244644896941310e+01 5.257895858198540395e+01 4.619353309187214052e+01
5.452674256782593432e+01 4.681365326213049372e+01 4.709169135083055835e+01
4.932983021014478453e+01 5.286434908720695347e+01 5.604491915281609948e+01
5.027074632687907751e+01 5.308663911072773089e+01 5.596731209398703299e+01
5.288984981213478420e+01 5.734476395193247811e+01 5.230202507715119253e+01
5.704937977525946735e+01 4.335621125858813230e+01 5.129718918802893768e+01
4.157385930070317670e+01 4.674340512295476202e+01 5.310554723576615999e+01
4.697780912396964936e+01 4.982281699204418146e+01 4.136579967221031495e+01
5.652162927356580013e+01 5.227110604179582509e+01 5.372346540548309690e+01
5.053671191222090897e+01 5.649364230152416866e+01 4.401658244211243698e+01
5.528468104158754670e+01 5.590498269542414533e+01 4.399367333856049100e+01
5.305627943531985125e+01 5.509634895574089342e+01 4.627596006296585784e+01
4.989128289854692611e+01 4.426148428735934459e+01 5.184461645985656020e+01
4.435986796529915921e+01 4.925784555386439933e+01 4.245133406236006124e+01
5.024781392103899691e+01 4.336168937978610671e+01 5.280283707324336007e+01
5.457596877288833781e+01 4.750869837889366920e+01 4.283265097985290737e+01
4.417625297105370663e+01 5.087658531152317920e+01 4.247694633502030115e+01
4.628092539001124806e+01 5.348044675193664688e+01 4.841370148925211225e+01
5.197856285221730133e+01 5.256460975274033132e+01 4.685956805461412245e+01
4.997150239275379846e+01 4.816848726231972933e+01 4.579797664291124448e+01
4.769517087097025865e+01 4.590351023911636474e+01 4.463536422431766226e+01
4.379321290472304185e+01 5.013220843677643757e+01 4.365115648865572950e+01
4.410738552583188721e+01 4.992016696495706896e+01 4.691934543580840966e+01
5.646483087034027903e+01 4.890183000218244302e+01 4.769413828423424206e+01
5.472449235979088655e+01 5.602623568546857058e+01 5.288471109007146964e+01
5.265384523164085095e+01 4.562929966660141901e+01 4.920580810982083619e+01
4.338750854543399527e+01 4.709167943635485187e+01 5.335662748588507753e+01
4.848131721963338236e+01 4.372617087201567898e+01 5.240975198513616817e+01
4.602072102723214897e+01 5.500828994293260621e+01 5.070690846340387736e+01
5.137957471399045062e+01 4.860891808219387400e+01 4.994937424923383418e+01
4.848819746347160731e+01 5.648630447248335429e+01 5.722667420150915518e+01
5.081246057131419036e+01 5.679175091504533412e+01 5.091762901036180011e+01
4.874591292850830371e+01 4.841623511392386803e+01 4.779045258970276677e+01
5.151736840655684091e+01 5.623126676834275628e+01 5.357144227838512052e+01
4.831805129378800956e+01 4.911106212548518357e+01 5.136930996564908725e+01
4.831756472151131732e+01 4.964803498226514478e+01 5.802023829429213464e+01
5.673023595488216131e+01 4.953017991350137095e+01 5.047220101314258045e+01
5.380101597537071711e+01 5.492962651963016185e+01 4.438283391197900585e+01
5.015989326073119514e+01 5.571702131373922384e+01 5.336786894965482020e+01
5.748441704458334556e+01 5.095503164922750017e+01 5.104839658498205068e+01
4.555138919253302987e+01 4.212754733109438376e+01 5.213007990228918231e+01
5.418835500892905799e+01 5.044667413618522289e+01 5.292397079759281553e+01
5.046330243176878838e+01 5.161290185649735207e+01 4.807238448799930097e+01
4.730559085864464208e+01 4.611501322096344069e+01 4.130036223372657389e+01
5.217466877350681642e+01 4.357350813321133387e+01 4.718351278515101654e+01
4.652403235703099682e+01 4.649517066767886320e+01 4.417886544350682954e+01
4.879055652117367003e+01 4.806280556252375646e+01 5.284120716988280009e+01
4.524134237277891657e+01 5.591359576917708551e+01 4.508949088099812741e+01
5.339903103158739839e+01 5.157570482778207577e+01 5.470309946769052800e+01
4.948101684249973431e+01 5.476187924485437009e+01 4.907202448294953712e+01
5.015251182945775810e+01 5.183716144298933415e+01 4.765762069539395185e+01
4.843069159242051569e+01 4.497422873025587364e+01 4.616652524158475757e+01
4.502401373808779539e+01 5.034261927614453214e+01 4.167969366041010915e+01
5.286183777019384422e+01 4.576466448260598696e+01 5.157151745684463862e+01
5.277264120712374051e+01 4.135279977263025586e+01 5.407205592327743915e+01
5.425959318361950068e+01 5.390065654081070790e+01 4.950008415361600811e+01
4.975033055402080606e+01 5.256302420685305066e+01 5.930044359949000210e+01
4.502072832751539266e+01 5.760783790384572711e+01 5.178788671065453286e+01
4.489437456855627318e+01 4.766698600767031735e+01 4.757074377922142361e+01
5.243671253279595845e+01 4.491435991380614468e+01 5.390928813225408334e+01
5.021346848536584417e+01 4.609986947592641116e+01 4.530333222503710999e+01
5.436285328898200220e+01 5.040380697515475106e+01 5.898100690305666660e+01
4.454479637175349183e+01 4.623030216153497207e+01 5.331652348698499821e+01
5.180818203689953805e+01 5.447470767850845164e+01 4.162354013465881053e+01
5.089442627144102715e+01 5.175753180944506937e+01 4.641656289297859672e+01
5.740575632205828782e+01 4.904710517477367659e+01 4.739577370409945445e+01
4.805358144428645062e+01 5.337031770145912191e+01 4.514860622747693952e+01
5.402622344363684448e+01 4.672786466225377211e+01 5.145651459885787204e+01
4.287625289376002513e+01 4.548554021027503325e+01 4.803904488674005790e+01
4.326833165293807326e+01 5.214137870153322751e+01 4.550526978045754589e+01
4.565998728163245346e+01 5.824211606775083538e+01 4.674458342932673816e+01
4.447735591876120509e+01 4.901104578412668644e+01 4.254011514532331972e+01
5.191253231510523847e+01 5.122102873650617738e+01 5.228828685539362908e+01
4.683722207435076257e+01 4.851151701110273251e+01 4.409719611150334373e+01
4.662391721812746681e+01 5.306594831356174780e+01 4.569832290377880213e+01
5.172126341531340188e+01 5.229528061673617145e+01 5.636834979853348671e+01
4.573158168990094907e+01 4.580943471525906574e+01 4.651520336900656361e+01
5.432180265773449435e+01 5.252676948278862312e+01 4.675493868215610149e+01
5.686955170203000876e+01 5.451279873234798856e+01 5.519673998336849507e+01
4.949098716935919384e+01 4.500885973178814226e+01 4.342448498947189250e+01
4.496800341778546084e+01 4.535060959195055119e+01 4.409485985457910573e+01
4.398004694548836113e+01 5.240436520980644985e+01 5.721809635427239726e+01
5.546307780089351525e+01 4.836513124912875838e+01 4.925207835027899250e+01
4.981804768144900919e+01 4.465984680773451743e+01 5.016879361569181839e+01
4.647108535442539790e+01 4.847939381141323167e+01 5.328514404834299967e+01
4.717361616437310090e+01 4.576219757709218072e+01 4.823233843936316134e+01
4.120231742753648518e+01 5.274360746083561935e+01 4.975106905214627773e+01
5.354245289396628493e+01 5.005577677720071961e+01 4.326749632939241508e+01
5.383326169399880001e+01 4.819755970980811099e+01 4.416225033273384071e+01
4.734960846260178613e+01 4.277524020145406780e+01 4.655998318847311879e+01
5.030390590233642456e+01 4.142030694440342131e+01 5.475195665912310972e+01
5.275111454618679829e+01 4.649129056442290420e+01 4.902531539034588093e+01
4.195591660797289535e+01 4.708951332327181660e+01 5.057352672969621921e+01
4.617693716685764826e+01 5.374310692895163299e+01 4.351160423571469948e+01
4.937181394187819450e+01 4.389103811583311199e+01 4.251851621784800273e+01
5.588289577117563312e+01 4.814246486437320982e+01 5.311330775620074718e+01
5.355667373217474392e+01 4.221697548384355514e+01 4.523464060487386718e+01
5.450722864713557669e+01 4.551400286613517210e+01 4.950337107509091084e+01
5.493377712084374309e+01 5.386269077816271533e+01 5.069955209468568569e+01
5.006215575172186050e+01 4.348080117663300115e+01 4.770855471897493771e+01
5.508111425815754814e+01 5.134421374371663660e+01 4.947472483967001722e+01
4.909490697163255390e+01 4.870930063002166577e+01 4.663870403085079630e+01
5.167718155123402113e+01 5.521883262335934006e+01 4.719774637063477485e+01
4.943729153233291385e+01 5.799605297003338222e+01 5.459507927819753093e+01
4.846495713830611862e+01 5.341809171954975710e+01 5.103583865344194237e+01
4.063291241637116968e+01 5.078106991887241151e+01 4.708863603775807150e+01
4.616670853639966055e+01 5.645209011482486972e+01 5.532810721915848262e+01
5.708524795965183074e+01 4.675340027793941999e+01 5.148150143003567791e+01
4.653005860801503246e+01 4.865509677453439252e+01 5.649136964867341959e+01
5.327817959293379602e+01 5.190877785045010739e+01 5.154304732351205587e+01
4.494227118799071263e+01 4.835073843640487468e+01 5.190150423089045972e+01
5.326586439909058868e+01 5.727944550424643211e+01 5.517117314400231720e+01
5.884869066150453421e+01 4.789278269587612158e+01 5.412979289061203048e+01
4.992471123461190530e+01 5.737867158578794147e+01 4.742009955903553475e+01
4.854510735851577152e+01 5.053215305997809281e+01 5.344796102445533847e+01
5.280052794167873031e+01 5.153424488221832434e+01 5.188449419614993019e+01
5.382043301995701512e+01 5.829585971907281561e+01 5.319376760834155959e+01
5.511273393723737968e+01 5.406177258877318081e+01 4.952151803953680798e+01
5.381164343146242857e+01 4.973871728229253364e+01 5.299728862328173307e+01
5.199660738331978393e+01 5.656899164125208301e+01 4.582963825123611912e+01
4.120683390010814406e+01 4.582449575347524728e+01 5.071208916002360212e+01
4.680252145538737807e+01 5.480433424423753053e+01 4.940658236734643793e+01
4.920311139255992572e+01 4.575592027405430429e+01 5.613009664987392711e+01
4.367056143111778255e+01 4.424246328710788845e+01 4.720952725620166746e+01
4.082155131009766080e+01 5.104663407155396726e+01 5.089761477344285368e+01
4.359323515332430787e+01 5.204326185944755423e+01 4.612384701472483073e+01
5.384587378558340021e+01 4.316650917294521150e+01 4.439185873446578512e+01
5.490000420563075068e+01 4.738042490688314246e+01 5.729073159691502326e+01
5.647504773289504243e+01 4.695032942243507534e+01 4.753602176137070501e+01
5.260839328131037007e+01 4.615043919498747016e+01 4.883586360898003420e+01
5.206234475991783484e+01 5.612557985062598220e+01 4.410990958549302121e+01
4.580765759634900292e+01 4.720716465830950881e+01 4.278522797215774887e+01
5.284307278311411693e+01 4.980094863279905582e+01 5.173798787316469117e+01
4.362233160379872743e+01 5.165793032079054825e+01 4.864181460878230467e+01
5.597167346033591429e+01 4.389820452540522666e+01 4.596949369679496300e+01
5.413563373358126540e+01 4.580122930886047783e+01 4.655928810271156948e+01
5.322775531353826040e+01 5.864512304175766388e+01 5.380773602008546419e+01
4.817631629286002237e+01 4.368904047553695591e+01 4.270929572564177334e+01
4.656944369299520758e+01 4.710000882286537660e+01 4.637141348771921656e+01
4.363877358664372252e+01 5.621119999584496441e+01 4.797429736908141962e+01
5.355683918999809379e+01 5.157005503488331044e+01 4.810013596026744409e+01
4.879997795014323714e+01 5.435789521403349056e+01 5.481142479657944477e+01
4.475855137287763341e+01 4.443717876830397273e+01 4.706465353732554036e+01
5.340426828477276189e+01 4.496133829655890679e+01 5.502122279207289779e+01
4.251973017041580505e+01 5.274154723187130855e+01 5.237073885509813920e+01
4.414439849497245660e+01 5.009980224444766606e+01 4.513265147464346683e+01
5.133450319752923718e+01 5.394643378822270563e+01 4.487785510112900766e+01
4.412378683610815955e+01 5.531652420240897072e+01 4.709383228690131773e+01
4.715640995508432098e+01 5.274637435639255756e+01 4.736677398124670191e+01
5.384698951361774988e+01 5.231056177686339481e+01 5.346410770298448512e+01
5.582937465130518717e+01 5.065779446677128561e+01 4.303044220883518278e+01
5.060657663594396638e+01 4.278650823761142163e+01 4.414988070990047220e+01
4.937878510942653776e+01 5.064580198733848704e+01 5.680389551804854165e+01
5.288298890951463704e+01 4.890538552206687939e+01 4.232855424328280236e+01
5.884381787591054547e+01 4.700347078405299328e+01 4.653596310965989602e+01
4.601771245368657759e+01 5.329479835080995542e+01 4.795125421606110194e+01
4.828277467982301374e+01 4.758589271202016135e+01 4.476955628760822492e+01
4.764950842371658979e+01 5.525499522209222647e+01 5.361213819007373615e+01
4.694989130939282518e+01 5.605348836174979255e+01 4.648840852795179757e+01
5.171761049163539070e+01 4.358933296906810995e+01 5.076216821859834738e+01
4.289621165567840677e+01 5.055334577042989253e+01 5.107704018781424793e+01
5.897395344448634091e+01 5.216246676005867045e+01 4.813272521954365146e+01
4.853076621515718614e+01 5.468272511053665852e+01 5.238760496094238306e+01
5.522526212373733756e+01 5.384378086136405273e+01 5.669484312887755095e+01
5.833577118547753315e+01 4.521572374810833850e+01 4.921210045117241094e+01
5.061514673828496313e+01 5.303396822308580028e+01 4.665036090320020890e+01
5.739764064072213756e+01 5.450228049829789256e+01 5.331187633784912094e+01
4.488815606429818672e+01 5.073411951351912563e+01 5.099605194419858378e+01
4.755406146536167711e+01 5.205451415873375254e+01 4.164703938269387606e+01
4.227125171960720706e+01 4.962250313722800144e+01 4.386778696727280646e+01
4.792707065827848112e+01 5.187379416093510542e+01 5.187385669753366813e+01
5.358946180860881725e+01 4.405377095762337092e+01 5.643398444630827271e+01
5.370961688513249044e+01 4.726051788539121645e+01 4.869254328449347469e+01
4.616867635723108521e+01 5.699496242333388096e+01 4.798334709548848309e+01
4.849094902054778089e+01 5.607458314366393637e+01 4.484756464946638488e+01
4.509389223789172263e+01 4.507058917915041008e+01 5.627143251396826429e+01
4.871443620065819857e+01 4.976652457916649297e+01 4.568804957653983223e+01
4.802614209704969284e+01 4.461227540876488717e+01 4.608327883514212431e+01
4.729936627042930297e+01 5.512368682218690452e+01 4.633100831577341694e+01
4.094337326391694631e+01 4.847824475666699584e+01 4.736893682625196078e+01
4.557113159306407368e+01 4.226793221250918720e+01 5.240877388767795253e+01
5.234006029987946818e+01 4.703995397066844930e+01 5.334813757256344502e+01
5.768985268443979209e+01 4.819949603002686445e+01 5.014359155087480957e+01
5.943863743075726802e+01 4.984278689462273348e+01 4.699652982121416045e+01
4.282585679942933865e+01 4.737114359566005106e+01 4.894304489203650377e+01
5.126910854849170107e+01 5.330015806483581997e+01 4.688028968348344705e+01
5.012831813583655816e+01 4.289569895520251208e+01 5.615094170452304922e+01
4.388200867994731880e+01 4.569916976551622412e+01 5.262964961150608900e+01
5.651506699156699653e+01 5.669641432263317427e+01 5.079538017207304534e+01
4.594457544377288372e+01 4.512197206918344961e+01 5.521119966166217807e+01
5.392430328159358055e+01 5.642778459404576097e+01 5.179400166822488671e+01
4.453165307155286712e+01 5.180213001951162965e+01 4.344192094254233183e+01
4.267452318952389589e+01 5.173041289586255687e+01 4.714019410930023923e+01
4.793588000273177840e+01 5.278483033551214731e+01 5.604653818710795576e+01
5.433149802172027876e+01 4.744574799329605241e+01 5.596111762498702547e+01
4.900639487590743215e+01 5.108942467510034646e+01 4.323449664273433513e+01
5.696146215433437732e+01 5.060294531155222586e+01 5.308772726623820404e+01
4.676058696041656049e+01 5.004469157770361676e+01 4.969250980061230649e+01
5.481682001197748377e+01 4.187212182943409289e+01 5.283123124144707106e+01
5.677886248820167481e+01 4.799117515489742658e+01 4.651967191280805025e+01
5.752272165480919597e+01 5.027864908758829898e+01 4.657321474908775372e+01
4.698346585301636225e+01 4.484252408041099613e+01 4.556556353860311503e+01
4.586916265005029913e+01 4.917089418953081292e+01 5.068112679611397198e+01
5.419885643599356229e+01 4.826294860964295452e+01 4.937315557121968368e+01
5.437214740256182921e+01 4.677123266167383520e+01 5.290727331486115048e+01
4.510558298424102475e+01 4.616114300341519794e+01 4.472175626610138721e+01
5.257100811320653833e+01 4.618156908634139057e+01 4.819983151207881633e+01
5.820273168738712144e+01 4.493014980866559682e+01 5.152658557712616272e+01
4.664345463685927484e+01 4.716757677041078978e+01 4.842675957552759769e+01
5.044649201405331240e+01 5.405928198260612305e+01 4.112781885738012733e+01
4.559187759564164111e+01 5.044809693419703933e+01 5.699392387223066692e+01
5.337354165657739458e+01 4.772948812826205511e+01 4.799102388960363186e+01
5.036199653287724232e+01 5.239898865626362578e+01 4.457328181420130164e+01
4.869899013054121895e+01 4.302773550344797115e+01 4.940462090883618629e+01
4.889859441892807723e+01 4.909635986999671786e+01 5.078932853362530153e+01
4.292713608999964947e+01 4.545639950151948483e+01 4.984087709297886448e+01
5.313920845152521366e+01 5.517159329602473150e+01 5.313541329824980863e+01
5.031798771606811016e+01 5.048121445056429479e+01 5.928054747584720019e+01
4.769039608211060965e+01 4.789208609776303405e+01 5.912987638660529655e+01
4.496994663187873442e+01 5.302240983628707482e+01 4.447577774886086388e+01
5.365114931124256259e+01 4.668585910240082626e+01 4.252713915361883323e+01
4.431914598265903749e+01 4.734868094591027443e+01 4.822377670627927415e+01
4.835190194244380990e+01 5.929002599065699997e+01 5.192805745128210759e+01
4.826841419651775311e+01 5.968772588190272188e+01 4.844499549144920536e+01
4.874229356997623341e+01 4.331375551689301773e+01 5.573502812169542153e+01
5.098534905179242571e+01 5.045795078594417049e+01 5.272934132623021952e+01
4.700069993473474739e+01 5.579624680835423334e+01 4.564162519640019156e+01
4.676731717155242762e+01 5.145539126317297729e+01 5.188983837833821866e+01
5.082705273507973942e+01 5.248281821076534470e+01 5.093615210873620214e+01
4.401850089162188340e+01 4.416144520815438312e+01 4.911446152139201615e+01
4.973863909283255680e+01 5.864285282883520978e+01 4.574421371233066935e+01
5.439734906147815252e+01 4.762668809556092953e+01 5.253023508707577349e+01
4.699710728422186179e+01 4.204100462089176204e+01 4.954728199111369946e+01
5.573140125351362428e+01 5.494147595434598941e+01 5.637980968997281650e+01
4.515585556905764264e+01 5.083805423472519180e+01 5.827837108408080269e+01
4.746443221964661063e+01 4.659812853778137054e+01 5.015954661175467777e+01
5.055786545704942370e+01 5.270834848013900853e+01 4.330921271242549153e+01
4.993454853524503534e+01 5.379952075784403576e+01 5.316573339976192614e+01
5.019439169201405093e+01 4.016179889698718597e+01 4.987689751992549247e+01
4.579206061233700353e+01 4.363249569295572883e+01 4.406908347526336911e+01
5.224765405328584933e+01 5.962360100295224186e+01 4.949202260102620698e+01
5.323758492269312370e+01 4.660226326412875153e+01 4.301926228844178723e+01
